ncols         498
nrows         33
xllcorner     630394.261901
yllcorner     6396864.21354
cellsize      200
NODATA_value  -9999
-9999 -9999 -9999 -9999 -9999 -9999 -9999 -9999 -9999 -9999 -9999 -9999 -9999 -9999 -9999 -9999 -9999 -9999 -9999 -9999 -9999 -9999 -9999 -9999 -9999 -9999 -9999 -9999 -9999 -9999 -9999 -9999 -9999 -9999 -9999 -9999 -9999 -9999 -9999 -9999 -9999 -9999 -9999 -9999 -9999 -9999 -9999 -9999 -9999 -9999 -9999 -9999 -9999 -9999 -9999 -9999 -9999 -9999 -9999 -9999 -9999 -9999 -9999 -9999 -9999 -9999 -9999 -9999 -9999 -9999 -9999 -9999 -9999 -9999 -9999 -9999 -9999 -9999 -9999 -9999 -9999 -9999 -9999 -9999 -9999 -9999 -9999 -9999 -9999 -9999 -9999 -9999 -9999 -9999 -9999 -9999 -9999 -9999 -9999 -9999 -9999 -9999 -9999 -9999 -9999 -9999 -9999 -9999 -9999 -9999 -9999 395 396 395 394 395 395 396 398 398.25 397.25 399 399.5 399 400 401 400.5 401 400 399 400.5 401.75 402 402 403 403 404 404 404 404 404.5 405 408 407 409 410 410 410 412 413 414 414.5 414 414 414 415 415 414.25 413 413 412 411 412 413 413 413 411.75 412 412 412 414 414 416 417 417 416 417 417.5 418.5 419.5 420 419 421 422 424 424 427 427.5 429.25 428.75 428 429 430 432 433 434 434 434 434 436 436.5 438 438 439 442.25 446.5 448 448.5 448.25 448.5 451 452 454 456 455 456 458 458 460 461.5 460 460.5 463 462 463 464 465 465 465.5 467 468 468.75 469 470 472 472 471 471.25 473 476.75 480 485 485 486 486.25 488 491.25 495.25 497 498 497.75 502 504 506 509 511 511.25 512 511.5 512 511.5 512.5 515.25 520 524.25 526.5 525.5 527 529 529 531 533 537 541 541 541 544 546 548.5 550 551.5 554 557 556.5 558.5 560 562 564 566 567 569 570.25 572.5 573 575.75 576 579 582 585.75 586.5 587.5 588 590.5 590 592 594 595 594 595.75 596.5 595.5 597.25 594 593.5 595 595.5 595 598 601.5 605 608.25 610.25 612.75 617 619 621 622 623 623 623 624 623.75 622 622 622 622 623 625.25 627 628 628 630 630 633 636 637 638.25 642.5 646 650 652 656 659.25 662 665 669 670 671.25 674 678 682 690.5 691.5 696.5 703.5 701 700.5 700.5 700.5 702.5 705 705 708 707.75 707.5 707.5 706.25 705 702 701.25 694 691.5 687 685 682 680.25 678.5 677 675 671.5 670.5 668.5 667 665.5 666.5 669 670.5 666.5 666.5 667 663 662 659.75 658 656.5 656 654.75 654 654 653 653 651 649 648 646 645 640.5 637.75 637.25 636.5 -9999 -9999 -9999 -9999 -9999 -9999 -9999 -9999 -9999 -9999 -9999 -9999 -9999 -9999 -9999 -9999 -9999 -9999 -9999 -9999 -9999 -9999 -9999 -9999 -9999 -9999 -9999 -9999 -9999 -9999 -9999 -9999 -9999 -9999 -9999 -9999 -9999 -9999 -9999 -9999 -9999 -9999 -9999 -9999 -9999 -9999 -9999 -9999 -9999 -9999 -9999 -9999 -9999 -9999 -9999 -9999 -9999 -9999 -9999 -9999 -9999 -9999 -9999 -9999 -9999 -9999 -9999 -9999 -9999 -9999 -9999 -9999 -9999 -9999 -9999 -9999 -9999 -9999
-9999 -9999 -9999 -9999 -9999 -9999 -9999 -9999 -9999 -9999 -9999 -9999 -9999 -9999 -9999 -9999 -9999 -9999 -9999 -9999 -9999 -9999 -9999 -9999 -9999 -9999 -9999 -9999 -9999 -9999 -9999 -9999 -9999 -9999 -9999 -9999 -9999 -9999 -9999 -9999 -9999 -9999 -9999 -9999 -9999 -9999 -9999 -9999 -9999 -9999 -9999 -9999 -9999 -9999 -9999 -9999 -9999 -9999 -9999 -9999 -9999 -9999 -9999 -9999 -9999 -9999 -9999 -9999 -9999 -9999 -9999 -9999 -9999 -9999 -9999 -9999 -9999 -9999 -9999 -9999 -9999 -9999 -9999 -9999 -9999 -9999 -9999 -9999 -9999 -9999 -9999 -9999 -9999 -9999 -9999 -9999 -9999 -9999 -9999 -9999 -9999 -9999 -9999 -9999 -9999 -9999 -9999 -9999 -9999 -9999 -9999 -9999 396 396 396 396 396.75 396.75 398 399 398.75 400 400 401 401 402 402 401 401 401 401.25 402 402 402 404 403 404 405 406.5 406.5 406 407 409 410 411 411 411 411.25 412 413 414 415 414 414 414 415 414 414 413 413 411.75 411 411 412 413 412 412 412 413 414 415.5 416 416 417 418 418 419 420 421 421 422 421.5 422.5 424.75 426 426 428 429 430 431 431 431 431 433 434 435 436 436 436 437 438 440 441 444 446.75 449.75 449.5 450 451 451 453 454 454 455 456 457.5 458 460 461 462 463 464.5 465 464 464.75 465 465 467 468 468.5 469 470 471 472.5 473 476 473.5 476.5 479.5 483 485 488 487 487 488 491.25 494.25 497 498 499 500 504.5 506.75 507 509 511 511 512 513 515.25 517.5 517 523.5 523.5 526.5 528.75 528 528.75 531.5 530.25 533 536.75 539.75 543 542 543 545.75 549 550 551 553.75 556.5 559 560.25 561.5 562 566 566 568 569.5 571 572 574 575.75 578 578.75 582 586 589 588 590.25 592 592.5 593 594 595.5 597 598 599 601 601 599.5 600 598.5 598 600 599 602 606.5 609.75 610 612 614.75 617 618 620.75 622 621 621.25 623 623 621 620 622.5 623 624.25 627 628 629.25 630.5 631 632.75 634 636.75 640 642.25 641.5 645 649.75 653 656 659 661 664 666.75 671 673.5 676.5 677.25 684.5 690.25 696.75 701.75 708.5 710.5 711 706.5 709.5 710.5 710 709.5 710.5 711 712 710.25 709 708 707 704 702 698 694.75 690.75 689 685 684.75 681 680 679 677 675 675 672.5 672 670.5 672 673 672 669 668 665 662 660 659 657 656 655 654.75 655.5 653.75 652 652 651.25 649.5 647 647 644 642.5 639.75 638.75 635 -9999 -9999 -9999 -9999 -9999 -9999 -9999 -9999 -9999 -9999 -9999 -9999 -9999 -9999 -9999 -9999 -9999 -9999 -9999 -9999 -9999 -9999 -9999 -9999 -9999 -9999 -9999 -9999 -9999 -9999 -9999 -9999 -9999 -9999 -9999 -9999 -9999 -9999 -9999 -9999 -9999 -9999 -9999 -9999 -9999 -9999 -9999 -9999 -9999 -9999 -9999 -9999 -9999 -9999 -9999 -9999 -9999 -9999 -9999 -9999 -9999 -9999 -9999 -9999 -9999 -9999 -9999 -9999 -9999 -9999 -9999 -9999 -9999 -9999 -9999 -9999 -9999
-9999 -9999 -9999 -9999 -9999 -9999 -9999 -9999 -9999 -9999 -9999 -9999 -9999 -9999 -9999 -9999 -9999 -9999 -9999 -9999 -9999 -9999 -9999 -9999 -9999 -9999 -9999 -9999 -9999 -9999 -9999 -9999 -9999 -9999 -9999 -9999 -9999 -9999 -9999 -9999 -9999 -9999 -9999 -9999 -9999 -9999 -9999 -9999 -9999 -9999 -9999 -9999 -9999 -9999 -9999 -9999 -9999 -9999 -9999 -9999 -9999 -9999 -9999 -9999 -9999 -9999 -9999 -9999 -9999 -9999 -9999 -9999 -9999 -9999 -9999 -9999 -9999 -9999 -9999 -9999 -9999 -9999 -9999 -9999 -9999 -9999 -9999 -9999 -9999 -9999 -9999 -9999 -9999 -9999 -9999 -9999 -9999 -9999 -9999 -9999 -9999 -9999 -9999 -9999 -9999 -9999 -9999 -9999 -9999 -9999 -9999 -9999 396.75 397 396 397 397 397 398 399 399 400 400 401 401 402 401.75 401.75 401 401 402 402 402 403 404 404 405 406.5 408 407 407 409 410 412 413 412 412 413 413 414 413.5 414 414 413 413.25 414 413.5 413 412 412 411.5 411 411 412 412 413 413 413.25 414 415.25 416 416 416 418 419 419 420.5 421 422 421.5 423.5 424 424 426 428.25 427 428 429 431 432 432 432 432 433 434 435 438 438 437.25 439 441 441.75 442.75 446 448.75 450.5 451 451 452 453 453 455 455 456.75 458 459.25 460 461.5 462 463.25 465 466 466 465 466.75 467 467.5 467 468 470 470.5 471 472 474 475.5 477 479 480.75 484 485 486 489 488 490 491.5 494.5 495.5 499 500 502.25 504 505.75 507 507 509 511.25 512 514 515.5 517.5 522 521.75 525 527 529 530 530.5 532 533 533.75 536.5 538.5 541 542 544 544 548 549 550.75 552 556 558 560 562.5 563.25 564 566 568 570.5 572 573.75 574 576.5 578.25 581 582.5 585 588 591 590 592 593 595 594 596 597 598.5 599.5 601 601 602 602 602 601 600.5 602 603 604.25 607 611 611 613 616 618 618 620 621 620.5 621 622 621 620 620 623 624.75 626.25 628 629 630 633 633.5 634 637 639 640.5 644.25 645.25 647.75 652.25 656 657.25 661 663 665.75 669 673 676.75 681.5 680.75 686.25 697.5 706 709.5 712 712.5 715.5 712.25 713 716.25 715.5 715 715 715 713.5 711 710 709 708.75 706 702.75 698 695 692.5 691 688 687 683 681 680 680.75 678 677 674.75 672 671.5 673 674 672 669 667 664.75 663 661 660.25 658 657 655 656 656 655 653 653 651 649.25 648 647.75 646 644 641 638.25 635 -9999 -9999 -9999 -9999 -9999 -9999 -9999 -9999 -9999 -9999 -9999 -9999 -9999 -9999 -9999 -9999 -9999 -9999 -9999 -9999 -9999 -9999 -9999 -9999 -9999 -9999 -9999 -9999 -9999 -9999 -9999 -9999 -9999 -9999 -9999 -9999 -9999 -9999 -9999 -9999 -9999 -9999 -9999 -9999 -9999 -9999 -9999 -9999 -9999 -9999 -9999 -9999 -9999 -9999 -9999 -9999 -9999 -9999 -9999 -9999 -9999 -9999 -9999 -9999 -9999 -9999 -9999 -9999 -9999 -9999 -9999 -9999 -9999 -9999 -9999 -9999 -9999
-9999 -9999 -9999 -9999 -9999 -9999 -9999 -9999 -9999 -9999 -9999 -9999 -9999 -9999 -9999 -9999 -9999 -9999 -9999 -9999 -9999 -9999 -9999 -9999 -9999 -9999 -9999 -9999 -9999 -9999 -9999 -9999 -9999 -9999 -9999 -9999 -9999 -9999 -9999 -9999 -9999 -9999 -9999 -9999 -9999 -9999 -9999 -9999 -9999 -9999 -9999 -9999 -9999 -9999 -9999 -9999 -9999 -9999 -9999 -9999 -9999 -9999 -9999 -9999 -9999 -9999 -9999 -9999 -9999 -9999 -9999 -9999 -9999 -9999 -9999 -9999 -9999 -9999 -9999 -9999 -9999 -9999 -9999 -9999 -9999 -9999 -9999 -9999 -9999 -9999 -9999 -9999 -9999 -9999 -9999 -9999 -9999 -9999 -9999 -9999 -9999 -9999 -9999 -9999 -9999 -9999 -9999 -9999 -9999 -9999 -9999 -9999 -9999 398.25 398 398 398 398 398 399 400 400 401 401 401 402 403 402.75 402 403 402.5 402 403 405 405 406 407 407.75 409 410 411 412 413 413 413 413 413 414 414 414 413 412.5 413.5 413 413 413 412 411 411 410 410.75 412 412 413 413 413 414 415 416 417 416 416 418 420 420 420.5 422 423 422 424 425.25 427 427 428 430 430 430 431 433 432.5 433 434 433.5 434 435.75 438.25 440.5 441 441.25 444 445.5 445 445 449.25 451 452 453 453 453 455 455 456 458 458.25 459.75 462.5 463 464 463 464.75 465 466 467 466.75 468 469 468 469.25 470.5 472 472 473.5 474 476 478 480 482 485 486 488 489 489 493.75 497.5 496.5 497.5 499 501 502.5 505.25 505 505 507 509 511.25 514.75 516 518 519.75 521.75 526 527 527 529 533 533.5 537.5 538.5 537.25 537 538.25 540 543 544 545 547 548.25 549.75 552.25 554.75 558 560.5 563 564 565 565 569 570.25 574 574 575 577 579 581 583 585.75 590 592 592.5 593 594.5 596 599.5 598 598.75 600 601 602 602 602.5 603 603 603 604 605 606 605.5 608.5 609 612 613 616.5 617 620 619 620 619 618 619 619 620 622 622 624 626 628 630 632.5 634 635 636 637.75 639.75 642 644.25 645.75 649.75 653 653 659 660 663.25 666.75 671.5 674 681.25 685 689.75 693.5 701.75 709.5 714.5 715 718.5 719.5 720.5 721 721.5 721 720.5 720.25 719.5 721 718 715 713.5 712 710 707.75 705 700.25 698.75 696 694.5 691 689.25 686 684.5 683 683 681 678 676.75 675 674.5 674.5 674 673 671 669 666 666 665 663.5 660 657.5 656.75 658 657 657 655 654 652 651 649 649 647 644.5 641.5 639 637 -9999 -9999 -9999 -9999 -9999 -9999 -9999 -9999 -9999 -9999 -9999 -9999 -9999 -9999 -9999 -9999 -9999 -9999 -9999 -9999 -9999 -9999 -9999 -9999 -9999 -9999 -9999 -9999 -9999 -9999 -9999 -9999 -9999 -9999 -9999 -9999 -9999 -9999 -9999 -9999 -9999 -9999 -9999 -9999 -9999 -9999 -9999 -9999 -9999 -9999 -9999 -9999 -9999 -9999 -9999 -9999 -9999 -9999 -9999 -9999 -9999 -9999 -9999 -9999 -9999 -9999 -9999 -9999 -9999 -9999 -9999 -9999 -9999 -9999 -9999 -9999 -9999
-9999 -9999 -9999 -9999 -9999 -9999 -9999 -9999 -9999 -9999 -9999 -9999 -9999 -9999 -9999 -9999 -9999 -9999 -9999 -9999 -9999 -9999 -9999 -9999 -9999 -9999 -9999 -9999 -9999 -9999 -9999 -9999 -9999 -9999 -9999 -9999 -9999 -9999 -9999 -9999 -9999 -9999 -9999 -9999 -9999 -9999 -9999 -9999 -9999 -9999 -9999 -9999 -9999 -9999 -9999 -9999 -9999 -9999 -9999 -9999 -9999 -9999 -9999 -9999 -9999 -9999 -9999 -9999 -9999 -9999 -9999 -9999 -9999 -9999 -9999 -9999 -9999 -9999 -9999 -9999 -9999 -9999 -9999 -9999 -9999 -9999 -9999 -9999 -9999 -9999 -9999 -9999 -9999 -9999 -9999 -9999 -9999 -9999 -9999 -9999 -9999 -9999 -9999 -9999 -9999 -9999 -9999 -9999 -9999 -9999 -9999 -9999 -9999 399 399 399 398.25 398.75 399 400 400 401 402 401.5 402 402 403 403.5 404 403 404 404 404 405 406.5 407 408 410 409 411 412 412.5 413 413 413 413 412 413.25 414 413 412 412 412 412.5 409.5 409.5 411 411 410 411 411.5 413 413 413 414 414 415 416 417 417 417 417 418.5 420.25 421.75 421.75 423.5 424 423 424.25 426.75 427 428 430.5 431 431.25 431 432 434 434 435 437 437 436 437 441 443 443 443.75 446 446 446 448 450 452 452 453 454 455 455.5 456.25 459 459 460 461 463.75 465 464 464 465 465 466 467 467 468 469 469 470.75 474 475 474 475.5 475.5 478 480 482.5 484 486 486 488 488.25 491.75 494.75 499 499.5 500 502 502.5 504 507 507.5 507.25 509 512 515 517.25 518 518 522.75 524 527 528 529 530 535.5 537.25 540.5 542 539 539.5 540.5 541.5 544 545 548 548.5 549.5 550 555 558 561 562.25 564.75 565.5 566.5 568.25 571 572.25 575 575 575 578.25 581.25 582.5 585.25 587.25 590.75 594 594 596 597.25 598 600 600.5 601.5 602 603 602 604 604 604.25 604.5 605 605.5 607.5 608.5 608 609.75 611.5 613 614 618 619 620 620 619.5 619 619 619 620.5 621 623 624 625.5 627 629 631 634 635 636 637 639.5 641.5 644 645.75 648.5 651.75 655.5 654 661 664 667.5 670.25 673.5 676.5 686 692 695.25 706.5 708.75 711.75 718.25 718.5 721.5 724 724.5 725 724.5 724.5 724 724 723 723 720.75 718 716.5 714 711.5 707.75 706 702 701.25 698 695.25 691.75 691 688 687 685 683 681 679.25 678 677.25 677 677 676.25 674 672 670 668 668 666 664 660.5 660 658.75 659 657 657 656 655 653 652.25 650.75 649 646 643.5 642 640.5 638 638 -9999 -9999 -9999 -9999 -9999 -9999 -9999 -9999 -9999 -9999 -9999 -9999 -9999 -9999 -9999 -9999 -9999 -9999 -9999 -9999 -9999 -9999 -9999 -9999 -9999 -9999 -9999 -9999 -9999 -9999 -9999 -9999 -9999 -9999 -9999 -9999 -9999 -9999 -9999 -9999 -9999 -9999 -9999 -9999 -9999 -9999 -9999 -9999 -9999 -9999 -9999 -9999 -9999 -9999 -9999 -9999 -9999 -9999 -9999 -9999 -9999 -9999 -9999 -9999 -9999 -9999 -9999 -9999 -9999 -9999 -9999 -9999 -9999 -9999 -9999 -9999
-9999 -9999 -9999 -9999 -9999 -9999 -9999 -9999 -9999 -9999 -9999 -9999 -9999 -9999 -9999 -9999 -9999 -9999 -9999 -9999 -9999 -9999 -9999 -9999 -9999 -9999 -9999 -9999 -9999 -9999 -9999 -9999 -9999 -9999 -9999 -9999 -9999 -9999 -9999 -9999 -9999 -9999 -9999 -9999 -9999 -9999 -9999 -9999 -9999 -9999 -9999 -9999 -9999 -9999 -9999 -9999 -9999 -9999 -9999 -9999 -9999 -9999 -9999 -9999 -9999 -9999 -9999 -9999 -9999 -9999 -9999 -9999 -9999 -9999 -9999 -9999 -9999 -9999 -9999 -9999 -9999 -9999 -9999 -9999 -9999 -9999 -9999 -9999 -9999 -9999 -9999 -9999 -9999 -9999 -9999 -9999 -9999 -9999 -9999 -9999 -9999 -9999 -9999 -9999 -9999 -9999 -9999 -9999 -9999 -9999 -9999 -9999 -9999 400 399 400.75 400.5 400 401 400.5 400 401 402 403 403 402 403 403 404 405 404 404 404 405 406 407 409 411 411 412 413 413 413.25 412 411 411 412 411 412 411 410.5 410 409 409.75 408 407 409 410 410 411 413 414 413 413 414.75 416 416 416.5 417 417 418.5 419 420.75 422 424 424 424.5 425 425.5 426.5 428.75 429.5 431.5 433 433 432.5 434.5 432.5 435.25 436 437 438 438 438 439 442.75 443 443 444 445 445 446 448.5 450 451.5 452 452.25 454 456 457 458.5 461 461.75 462 463 465.75 466 466 466.5 467 467 465 466 468.25 470 470.5 471 474.75 477 476 475 478 480.5 482 482 486 486.5 489.75 491.5 491.5 493.5 499.5 499.5 501 503.5 504.5 505 506 507 508 510 509 511 517.25 520.75 520 523.5 523.5 525 528 527.75 529 533.75 535 537 539 542 541.75 542 542.5 544 545.75 548 548 551.5 551.75 552 553 556 560 564 565 566 567.25 569.5 573 574.5 575.5 577 578 578.75 581.75 587.25 587.25 590.25 593 595 595 597 598.75 600 601 602 604 604.5 604.5 605 605 606 607.5 607 607 607.5 609.5 609 610 611.25 613.5 614 615 616.25 619 619.5 618.75 618 619 620 622 621.75 622.5 623 625.75 626.25 629 629 630 633 635 635.5 637 637 641 644 647 649 653 656.25 658.5 660.5 663.75 671.5 676.5 675.5 685.5 690.25 695.5 699 708 710 714 716 718.25 722.25 726 727 727 727.5 728 729 729 728 726 724 723 721 719 716 715.75 710.75 710 706.5 704 700.5 698.5 695 692.5 692 688.5 687.5 686 684 683 682 680 682 679.5 678.75 677 674.25 674 671 669 667 666 664 664 661 659.5 658.75 657 656 655 654 653 651 649 647 645 644 643 639 638 -9999 -9999 -9999 -9999 -9999 -9999 -9999 -9999 -9999 -9999 -9999 -9999 -9999 -9999 -9999 -9999 -9999 -9999 -9999 -9999 -9999 -9999 -9999 -9999 -9999 -9999 -9999 -9999 -9999 -9999 -9999 -9999 -9999 -9999 -9999 -9999 -9999 -9999 -9999 -9999 -9999 -9999 -9999 -9999 -9999 -9999 -9999 -9999 -9999 -9999 -9999 -9999 -9999 -9999 -9999 -9999 -9999 -9999 -9999 -9999 -9999 -9999 -9999 -9999 -9999 -9999 -9999 -9999 -9999 -9999 -9999 -9999 -9999 -9999 -9999 -9999
-9999 -9999 -9999 -9999 -9999 -9999 -9999 -9999 -9999 -9999 -9999 -9999 -9999 -9999 -9999 -9999 -9999 -9999 -9999 -9999 -9999 -9999 -9999 -9999 -9999 -9999 -9999 -9999 -9999 -9999 -9999 -9999 -9999 -9999 -9999 -9999 -9999 -9999 -9999 -9999 -9999 -9999 -9999 -9999 -9999 -9999 -9999 -9999 -9999 -9999 -9999 -9999 -9999 -9999 -9999 -9999 -9999 -9999 -9999 -9999 -9999 -9999 -9999 -9999 -9999 -9999 -9999 -9999 -9999 -9999 -9999 -9999 -9999 -9999 -9999 -9999 -9999 -9999 -9999 -9999 -9999 -9999 -9999 -9999 -9999 -9999 -9999 -9999 -9999 -9999 -9999 -9999 -9999 -9999 -9999 -9999 -9999 -9999 -9999 -9999 -9999 -9999 -9999 -9999 -9999 -9999 -9999 -9999 -9999 -9999 -9999 -9999 -9999 401.5 401 401.5 402 402.75 402.25 402 400.5 401 402 403 403 403 404.5 405 405 405.5 405.75 406.5 405 405 406 408 409.25 410 411.5 413 413 413 413 412 411 411 412 412 411 410 410 409 409 407 406 408 411 409.75 411 414 414 414 414 414 416 416 417.25 417 418 418.5 420 421 423 424.5 425 425.25 426 426.5 428 428 432 433 435 435 434 435 436 435 436.5 437.5 439.5 438.75 439 441.25 440.75 444 444 445 444 447 446 446.25 448 450 450 453 454 455 456 459 459 461 462 462.5 465 468.5 468.5 466 469.75 470 469 467.5 466.75 470.25 472 472.5 473 476 476.75 476 478 481 481.5 483 484 486.25 491 494 495 497.25 498 501 503 504.5 505 506 506 507.75 508 509.25 512 512.75 514 519.75 524.5 524.5 526 526 526.25 528.75 531 531 535 536 538 540 541.25 541.5 542 545 547 548 546.5 550 551 554 555.75 554.5 558 560 564 566 567.5 569 573 573.5 576 578 580 580.25 582.25 584 589 590 593 595 595.5 596 598.25 600.25 602 602 603.75 605 606 605 605.5 607 608 607.5 609 609.5 610 611.75 610 611.5 614 615.25 616 617 618.5 619 617.5 618 619 620 621.5 622 623 624 623 627 627 630 631 632 633.25 636.25 637 638.25 640 643 645.5 649 649.75 655.75 658.75 663 665.25 667.75 672.75 685.5 686.25 692.75 700 702 703.25 708 711 714.5 717 720.75 723 727 727.5 730 730 731 731 730 728.75 727.5 726 723.5 721.5 721.75 719 718 713.25 710 707.25 706.25 702.75 702.25 698 696 695 691.5 689.75 689.75 687.5 686.5 684.5 683.5 684 684 681.75 680 677 674 672.5 671 668 667 665 664 663 660 660 658 656 656 654 652 651 650.25 648 647 645 643 640 640 -9999 -9999 -9999 -9999 -9999 -9999 -9999 -9999 -9999 -9999 -9999 -9999 -9999 -9999 -9999 -9999 -9999 -9999 -9999 -9999 -9999 -9999 -9999 -9999 -9999 -9999 -9999 -9999 -9999 -9999 -9999 -9999 -9999 -9999 -9999 -9999 -9999 -9999 -9999 -9999 -9999 -9999 -9999 -9999 -9999 -9999 -9999 -9999 -9999 -9999 -9999 -9999 -9999 -9999 -9999 -9999 -9999 -9999 -9999 -9999 -9999 -9999 -9999 -9999 -9999 -9999 -9999 -9999 -9999 -9999 -9999 -9999 -9999 -9999 -9999 -9999
-9999 -9999 -9999 -9999 -9999 -9999 -9999 -9999 -9999 -9999 -9999 -9999 -9999 -9999 -9999 -9999 -9999 -9999 -9999 -9999 -9999 -9999 -9999 -9999 -9999 -9999 -9999 -9999 -9999 -9999 -9999 -9999 -9999 -9999 -9999 -9999 -9999 -9999 -9999 -9999 -9999 -9999 -9999 -9999 -9999 -9999 -9999 -9999 -9999 -9999 -9999 -9999 -9999 -9999 -9999 -9999 -9999 -9999 -9999 -9999 -9999 -9999 -9999 -9999 -9999 -9999 -9999 -9999 -9999 -9999 -9999 -9999 -9999 -9999 -9999 -9999 -9999 -9999 -9999 -9999 -9999 -9999 -9999 -9999 -9999 -9999 -9999 -9999 -9999 -9999 -9999 -9999 -9999 -9999 -9999 -9999 -9999 -9999 -9999 -9999 -9999 -9999 -9999 -9999 -9999 -9999 -9999 -9999 -9999 -9999 -9999 -9999 -9999 -9999 404 404 404 404 405 403 403 402.25 402 404 403 404 406 407 407 408 409 407.5 408 408.5 407.5 408.5 409 410 412 412 411 411 411 411.5 410.5 410 409.5 411.5 410 410 409.5 406.5 406 406 408.25 411 413 413 413 414 414 414 415 417.25 419 419 418 419 420.25 422 422.25 424 426 427 428 429 430.75 431 431 432 433.25 436 437.5 437 435.75 438 438.75 438 440 439.25 443 442.75 442.5 444 443.25 445.5 445.5 446 448 448 448.25 450 450 451 453 456 457 457 457.5 462 462.5 462 463 464 465 469 470 468 469 471 470 469 469.5 471 472 474 475 476 477.5 479.25 481 483 484 484.75 488.25 491.5 494.5 497 496.5 500.75 503 505 506 507 507 509 509 509 511 513 514.25 517.5 520.5 524.5 527.75 530.5 528 526.5 530.25 531.25 534.75 538.5 539 540.5 541.75 542.5 544.5 544.5 545.75 547.75 550 549 550 552 555.25 557 559 560 562.75 564.25 566 568.25 571 573.25 575.25 576 578 581.5 584.5 583 585.25 588 591.5 593.75 596 596 596 597 599 602 603.25 603 606 608 608 608 608.25 609 611 610 611 612 613 613 613 614 615.5 618 618 619 618.25 617 618 619 620 622 622.75 624 625 624.75 625.5 628 630 632 632 633 635 638 638 642 645.5 647.75 649.25 653.75 654.5 659 664.25 670 670 678.75 683.25 691 693 697.5 700 705.75 706.25 709.5 712 716.25 718.75 722.5 725 728 730 731.5 733 734.5 733 733 731.5 729.75 728.25 726 724 724 722 719.75 717 713.75 711 710 707.5 705.25 703.5 701 696.75 697 695 696 692 691 689 690 688.5 688 685.25 682.25 678.75 677.5 674.75 673 671 669 666 665 664 663 662 660.75 657 656 654 653 651 651 650 648 646 643.5 642 643.5 -9999 -9999 -9999 -9999 -9999 -9999 -9999 -9999 -9999 -9999 -9999 -9999 -9999 -9999 -9999 -9999 -9999 -9999 -9999 -9999 -9999 -9999 -9999 -9999 -9999 -9999 -9999 -9999 -9999 -9999 -9999 -9999 -9999 -9999 -9999 -9999 -9999 -9999 -9999 -9999 -9999 -9999 -9999 -9999 -9999 -9999 -9999 -9999 -9999 -9999 -9999 -9999 -9999 -9999 -9999 -9999 -9999 -9999 -9999 -9999 -9999 -9999 -9999 -9999 -9999 -9999 -9999 -9999 -9999 -9999 -9999 -9999 -9999 -9999 -9999 -9999
-9999 -9999 -9999 -9999 -9999 -9999 -9999 -9999 -9999 -9999 -9999 -9999 -9999 -9999 -9999 -9999 -9999 -9999 -9999 -9999 -9999 -9999 -9999 -9999 -9999 -9999 -9999 -9999 -9999 -9999 -9999 -9999 -9999 -9999 -9999 -9999 -9999 -9999 -9999 -9999 -9999 -9999 -9999 -9999 -9999 -9999 -9999 -9999 -9999 -9999 -9999 -9999 -9999 -9999 -9999 -9999 -9999 -9999 -9999 -9999 -9999 -9999 -9999 -9999 -9999 -9999 -9999 -9999 -9999 -9999 -9999 -9999 -9999 -9999 -9999 -9999 -9999 -9999 -9999 -9999 -9999 -9999 -9999 -9999 -9999 -9999 -9999 -9999 -9999 -9999 -9999 -9999 -9999 -9999 -9999 -9999 -9999 -9999 -9999 -9999 -9999 -9999 -9999 -9999 -9999 -9999 -9999 -9999 -9999 -9999 -9999 -9999 -9999 -9999 405.5 405 405 405 406 404 404 403 403 404 404 405 406.75 407 408 408.75 409 409 409 409 409 410 410 410 411 412 410.25 410 410.5 408.5 406.75 407 407 406.5 408 408.5 407 406.25 409.5 408.5 410.25 413 415 415 415 414 415 415 417 418 420 420 419.75 420 422 423.75 425 426 427.25 428.5 429 431 433 433 433 433.5 435.25 437 439 438 437.75 440 441.5 439 441 442.5 444 444 444 445 444 447 446.75 447.25 449.75 450 450 453 453 453.5 455 457 458 458 460 463 464.75 464.75 463 466 467.25 470 471 469 469 471 470 470 471.25 475 474.5 475.5 476.5 477.5 482.25 481 481 485.5 488.5 488 493 494.5 495 499 499.25 502.75 505 505 506 508 508.5 510 510.5 512.5 513 515.5 517 522 525.5 528 529 531.75 532.25 529.5 532.25 535 538.5 541 540 541 545.5 546 547 547.75 548 549 550 551 551.25 555.25 557.75 559 561.25 562 563.75 565 567 569 572.25 574 576 578 581.75 583 586 586.5 587 590.5 595 595.75 597 597 597 598.25 601 603 605.5 605.5 607 609 609 609.75 610.25 611 611.25 612 612 613 613 613 614 615.5 616.75 618.5 620 620 618 618.75 619.25 620 622 623.25 624 625 626 626 627 628 631 632 633 634 635.75 639 640.75 642.25 646 650.75 653 653.75 659 663.5 665.25 672.75 674.5 680.75 689.25 694 695 699.25 701.75 706 710 712 713.75 717.5 718.75 723 726 730 732 733 734 736 735 733 733 731 730 728 726 724.75 723.25 721 719 717 714 713 710.5 708 705.25 703.5 701 701.5 698.5 695.5 694 695.5 693.5 694 690 689 687 684.25 680.25 680 677 674.25 671 668 666.5 665.25 664.75 664 662.25 660.75 658 657 655 654.25 652.75 651 650 649 646.75 644.75 -9999 -9999 -9999 -9999 -9999 -9999 -9999 -9999 -9999 -9999 -9999 -9999 -9999 -9999 -9999 -9999 -9999 -9999 -9999 -9999 -9999 -9999 -9999 -9999 -9999 -9999 -9999 -9999 -9999 -9999 -9999 -9999 -9999 -9999 -9999 -9999 -9999 -9999 -9999 -9999 -9999 -9999 -9999 -9999 -9999 -9999 -9999 -9999 -9999 -9999 -9999 -9999 -9999 -9999 -9999 -9999 -9999 -9999 -9999 -9999 -9999 -9999 -9999 -9999 -9999 -9999 -9999 -9999 -9999 -9999 -9999 -9999 -9999 -9999 -9999 -9999 -9999 -9999
-9999 -9999 -9999 -9999 -9999 -9999 -9999 -9999 -9999 -9999 -9999 -9999 -9999 -9999 -9999 -9999 -9999 -9999 -9999 -9999 -9999 -9999 -9999 -9999 -9999 -9999 -9999 -9999 -9999 -9999 -9999 -9999 -9999 -9999 -9999 -9999 -9999 -9999 -9999 -9999 -9999 -9999 -9999 -9999 -9999 -9999 -9999 -9999 -9999 -9999 -9999 -9999 -9999 -9999 -9999 -9999 -9999 -9999 -9999 -9999 -9999 -9999 -9999 -9999 -9999 -9999 -9999 -9999 -9999 -9999 -9999 -9999 -9999 -9999 -9999 -9999 -9999 -9999 -9999 -9999 -9999 -9999 -9999 -9999 -9999 -9999 -9999 -9999 -9999 -9999 -9999 -9999 -9999 -9999 -9999 -9999 -9999 -9999 -9999 -9999 -9999 -9999 -9999 -9999 -9999 -9999 -9999 -9999 -9999 -9999 -9999 -9999 -9999 -9999 -9999 407 408 407.5 408 407 406 405 406.5 405 405 406 407 407 409 409 409 408 409 409 410 411 411 411 411 412 409 406.25 406 406 407.5 407 407 409 408 408 408.5 409 410.5 412.5 413 413 416 416 416 416 417 417 419.25 421 421 421.5 421 422 425.5 425 427 429 430 429 431 433 433 433 434.5 436 437.5 438.25 440 442 442.5 443 444 443 443 445 445 445.75 445 447 446 446.25 447 450 451 451 452 453 455.75 457 456 459 460 461 463.75 465 466 468 467 467 470 471 471 470 470 471 471.5 473 474 478 478 478 480 483 483.25 487.75 487.5 491.5 492.75 494.5 496 498 499.5 499.75 503 505 505 506 507 509 511.25 514 513.5 519.5 519.5 519.5 521 526 527.75 530 533 532.5 533 533 536.5 538 541 542 542 543.75 546 547 548 549 549 550 551 553 556.5 557 559.5 561 564 566 567 568 572.5 573 574 575 577.75 579 583.75 586 588 589.75 591.25 593 595 596.75 598.25 601.25 600 602.5 605.25 607.5 608.25 609 610 610 611 611 611.5 612 612.5 613 613 613 614 614 615 616.75 619 621 621 619 618 620 622 622 624 625 625.75 627 628 629 629.25 631.5 631.5 633 634.75 636.5 638 640 641 645.75 649 653 655.25 659.5 662.5 671.25 669.5 678 684.25 690.75 692.5 695.25 699.75 703 705 708.5 712 714.5 717 721 722 725 728.75 733 733.5 736 737 737 736 735 734 733 732 730 729 727.5 725.25 723.25 722 720 717 715 713.5 712.75 710 709 707 705 702.5 701.25 699.25 699 697 696 693 691.75 688 686 684 682 679 676.25 672.5 670 667.5 666.5 665 664 664 663 661 660 657.25 656.5 654.75 653 -9999 -9999 -9999 -9999 -9999 -9999 -9999 -9999 -9999 -9999 -9999 -9999 -9999 -9999 -9999 -9999 -9999 -9999 -9999 -9999 -9999 -9999 -9999 -9999 -9999 -9999 -9999 -9999 -9999 -9999 -9999 -9999 -9999 -9999 -9999 -9999 -9999 -9999 -9999 -9999 -9999 -9999 -9999 -9999 -9999 -9999 -9999 -9999 -9999 -9999 -9999 -9999 -9999 -9999 -9999 -9999 -9999 -9999 -9999 -9999 -9999 -9999 -9999 -9999 -9999 -9999 -9999 -9999 -9999 -9999 -9999 -9999 -9999 -9999 -9999 -9999 -9999 -9999 -9999 -9999 -9999 -9999
-9999 -9999 -9999 -9999 -9999 -9999 -9999 -9999 -9999 -9999 -9999 -9999 -9999 -9999 -9999 -9999 -9999 -9999 -9999 -9999 -9999 -9999 -9999 -9999 -9999 -9999 -9999 -9999 -9999 -9999 -9999 -9999 -9999 -9999 -9999 -9999 -9999 -9999 -9999 -9999 -9999 -9999 -9999 -9999 -9999 -9999 -9999 -9999 -9999 -9999 -9999 -9999 -9999 -9999 -9999 -9999 -9999 -9999 -9999 -9999 -9999 -9999 -9999 -9999 -9999 -9999 -9999 -9999 -9999 -9999 -9999 -9999 -9999 -9999 -9999 -9999 -9999 -9999 -9999 -9999 -9999 -9999 -9999 -9999 -9999 -9999 -9999 -9999 -9999 -9999 -9999 -9999 -9999 -9999 -9999 -9999 -9999 -9999 -9999 -9999 -9999 -9999 -9999 -9999 -9999 -9999 -9999 -9999 -9999 -9999 -9999 -9999 -9999 -9999 -9999 408 408.75 409 408 408 407 407 407 407 406 407 408 408 409 409 409 408 408 409 411 411 411 411 409.5 408.25 408 406 407 407.5 408 408 409 411 410.5 409 411 411 412 413 414.5 415 416 417 417 417 417 417 419.75 422 422 423 423.5 424.25 426.25 427.5 430.5 430 433.5 432 432 433 435 436 437 438 439 439 442 444 445 444.5 445 444 444 443 445 446 446 447 447 446 448 451 451 451.75 452.5 454.75 456 457.5 457 458 461 463 464 465.5 467 468.5 468 468 471 471 471 470.5 472 473.5 473.5 474 476 478 479 480 481 484.25 486.75 490 493 495 496.5 498 499 500 501 502.5 504.5 505 504 506 509 511 513 515.75 517.5 521 522.5 521.75 524 529 529.5 531.25 534.25 534 534 535.5 536.75 539 542.5 544 544 545 546 547 549 549 550 552 553.5 555 558 559.5 561 562.75 566 567 569 569.75 573 575.75 576.5 576 578.5 580 584 585.25 589 590 592.5 593 596 597.25 601 602.5 603.5 604 607 609 609 610 610 611 612 612 612 613 613 613 614 614 614.5 615 617 618.75 620 620 620 618 618 622 623 623 624 626 626 627 629 629 630 633 634.5 635 637 638 640 642 643.25 647.75 651 655.25 657.75 663.5 667.5 672.75 676.5 682.5 690.25 693.75 694 698.75 701.75 704 707.25 709.75 713 717.5 719.75 721 725 728.75 731 733 734 736 738 738 737.5 736 735 734 733 731.25 731 729 727 725.25 723 720.5 718 718 716.5 716 712.75 710 708.5 707 705.25 704 702 700.75 699 696 695 692.25 689 687 684 682 680.25 678.25 673.75 671.5 668.5 666.5 665 665 664.5 663 662 660.25 657 -9999 -9999 -9999 -9999 -9999 -9999 -9999 -9999 -9999 -9999 -9999 -9999 -9999 -9999 -9999 -9999 -9999 -9999 -9999 -9999 -9999 -9999 -9999 -9999 -9999 -9999 -9999 -9999 -9999 -9999 -9999 -9999 -9999 -9999 -9999 -9999 -9999 -9999 -9999 -9999 -9999 -9999 -9999 -9999 -9999 -9999 -9999 -9999 -9999 -9999 -9999 -9999 -9999 -9999 -9999 -9999 -9999 -9999 -9999 -9999 -9999 -9999 -9999 -9999 -9999 -9999 -9999 -9999 -9999 -9999 -9999 -9999 -9999 -9999 -9999 -9999 -9999 -9999 -9999 -9999 -9999 -9999 -9999 -9999 -9999
-9999 -9999 -9999 -9999 -9999 -9999 -9999 -9999 -9999 -9999 -9999 -9999 -9999 -9999 -9999 -9999 -9999 -9999 -9999 -9999 -9999 -9999 -9999 -9999 -9999 -9999 -9999 -9999 -9999 -9999 -9999 -9999 -9999 -9999 -9999 -9999 -9999 -9999 -9999 -9999 -9999 -9999 -9999 -9999 -9999 -9999 -9999 -9999 -9999 -9999 -9999 -9999 -9999 -9999 -9999 -9999 -9999 -9999 -9999 -9999 -9999 -9999 -9999 -9999 -9999 -9999 -9999 -9999 -9999 -9999 -9999 -9999 -9999 -9999 -9999 -9999 -9999 -9999 -9999 -9999 -9999 -9999 -9999 -9999 -9999 -9999 -9999 -9999 -9999 -9999 -9999 -9999 -9999 -9999 -9999 -9999 -9999 -9999 -9999 -9999 -9999 -9999 -9999 -9999 -9999 -9999 -9999 -9999 -9999 -9999 -9999 -9999 -9999 -9999 -9999 408 409 409 409 409 408 408 409 408 408 409 410 409 408 407.5 407.75 407 406.75 409 410 410 410 409.25 404.5 404.5 407 408 409.75 410 409.5 413 413.5 414 412.25 412 413 414 414 415 416 417 418 419 419 419 418.5 420 420 423 425.75 424 426.5 428 429 430.75 434 434 436 436 436 435.75 437 437 438 440 441.5 442 442.25 445 446.75 447 447 445.5 445 445 445 446 447 447 448 449.5 450 451 452 453.5 455 456.75 457.75 459 460 459.5 461.25 464.5 465 465 467 469 471.25 473 472 472.5 473 473 474.5 475 476 476.5 479 481 481 484 485.25 486.25 491.75 494 495.5 500 500 501.5 503 502.5 504.5 506.25 506.5 508.5 509 509.75 511 515.75 516 520.5 523.75 525.75 526.25 528 529 531.5 533.5 534.5 537 538.5 538.75 538 540.5 542.5 544 545 545 546 547 548 549.25 552.25 553.5 554.25 557 558 561 563 562 564 567.75 569.5 571 572 575 577.25 579.5 579 581 583.25 585 587 589.25 591.25 595 595.25 597.75 600 603.75 604 605 606 608 609 610 610 611 612 613 613 613 613 614 614 615 615 615.75 616.5 618 621 621 620 619 618 620 621 622.25 624 625 626 627 628 629 630 631 634 637 638 638 640 641 644 646.25 649.75 653 659.25 662.25 669 672.25 678 683 688 692.25 695 696 700 704 707.25 708 714.75 717 720 723 726.75 728.25 731.5 731.5 733.75 735 736.75 738 739 738 738 737 735 734.5 733 732 732 729 727 724.5 724 721 721.5 720.5 718.25 715 713 710.75 710 708.25 707 704 702 699 697 695 693 688.75 687 684 683 680 679 675 672.75 670.25 668.25 665 665 664 662 660 -9999 -9999 -9999 -9999 -9999 -9999 -9999 -9999 -9999 -9999 -9999 -9999 -9999 -9999 -9999 -9999 -9999 -9999 -9999 -9999 -9999 -9999 -9999 -9999 -9999 -9999 -9999 -9999 -9999 -9999 -9999 -9999 -9999 -9999 -9999 -9999 -9999 -9999 -9999 -9999 -9999 -9999 -9999 -9999 -9999 -9999 -9999 -9999 -9999 -9999 -9999 -9999 -9999 -9999 -9999 -9999 -9999 -9999 -9999 -9999 -9999 -9999 -9999 -9999 -9999 -9999 -9999 -9999 -9999 -9999 -9999 -9999 -9999 -9999 -9999 -9999 -9999 -9999 -9999 -9999 -9999 -9999 -9999 -9999 -9999 -9999 -9999
-9999 -9999 -9999 -9999 -9999 -9999 -9999 -9999 -9999 -9999 -9999 -9999 -9999 -9999 -9999 -9999 -9999 -9999 -9999 -9999 -9999 -9999 -9999 -9999 -9999 -9999 -9999 -9999 -9999 -9999 -9999 -9999 -9999 -9999 -9999 -9999 -9999 -9999 -9999 -9999 -9999 -9999 -9999 -9999 -9999 -9999 -9999 -9999 -9999 -9999 -9999 -9999 -9999 -9999 -9999 -9999 -9999 -9999 -9999 -9999 -9999 -9999 -9999 -9999 -9999 -9999 -9999 -9999 -9999 -9999 -9999 -9999 -9999 -9999 -9999 -9999 -9999 -9999 -9999 -9999 -9999 -9999 -9999 -9999 -9999 -9999 -9999 -9999 -9999 -9999 -9999 -9999 -9999 -9999 -9999 -9999 -9999 -9999 -9999 -9999 -9999 -9999 -9999 -9999 -9999 -9999 -9999 -9999 -9999 -9999 -9999 -9999 -9999 -9999 -9999 409 409 410 409 409 409 409 409 409 409 409 410 408 407 406.5 406 405 406 405.5 405.5 408.5 406.5 405 406 406 408 409 411 411.75 413 415 415 415 413 413 414 415 416 416.5 417 418.5 419 419.75 421 421.5 419.5 422 421.5 423.25 427 426 428.25 430 432 431.75 434.25 434.5 437 437 439 438 438 438.5 439.5 440 443 442.75 444 445.5 447 448 447 446 446.5 446.5 446 447 448 448 448 451 451 453 454.5 456 456 458 459 461 461 461 462.25 466 466 466.5 467 470.75 473 474 474.5 473.5 475 475 476.5 476 478 480 482.5 483.75 484 486.5 488.25 490.5 493.25 499 500.75 500.75 503.25 504 505 506.5 507 510.75 512 513 513 513.75 514.5 520.25 520 523.25 527 527.25 527 530 531 534 535.5 538.5 539.75 541.75 541.5 540.5 542 544 544 545 546 547 547 548 551 553.75 556 557 559.25 561 564 565 563 564.5 568.5 572.5 573 574.25 576 577.75 580 581 582 586 588 588.25 590 592 595.25 597.25 600 601 604.5 605 606 607.25 609.75 610 610 611 612.5 613 614 614 614 614 614.25 615 615.75 616 617 618 618.5 620 621 619 617 618 619 621 622.5 625 626 626 628 629 630 630 633 636 637.25 639 639 641 643.25 647.75 650 652.5 654.5 659.25 665 671.75 676.75 680 683.75 689.75 694 696.25 699 702 705.25 709.25 711 717.5 721 724 725.75 729 730.25 732 733.25 734.75 736 737 738 740 739 738 737.75 736 736 735 733 731.5 730.75 729.25 727.5 727.5 724 723 723 721 718.5 717 714.25 712 711 707.25 705.25 703 699.5 697 694 692 689 688 685 684 681 678 675 673 671 669.5 666 666 -9999 -9999 -9999 -9999 -9999 -9999 -9999 -9999 -9999 -9999 -9999 -9999 -9999 -9999 -9999 -9999 -9999 -9999 -9999 -9999 -9999 -9999 -9999 -9999 -9999 -9999 -9999 -9999 -9999 -9999 -9999 -9999 -9999 -9999 -9999 -9999 -9999 -9999 -9999 -9999 -9999 -9999 -9999 -9999 -9999 -9999 -9999 -9999 -9999 -9999 -9999 -9999 -9999 -9999 -9999 -9999 -9999 -9999 -9999 -9999 -9999 -9999 -9999 -9999 -9999 -9999 -9999 -9999 -9999 -9999 -9999 -9999 -9999 -9999 -9999 -9999 -9999 -9999 -9999 -9999 -9999 -9999 -9999 -9999 -9999 -9999 -9999 -9999 -9999 -9999
-9999 -9999 -9999 -9999 -9999 -9999 -9999 -9999 -9999 -9999 -9999 -9999 -9999 -9999 -9999 -9999 -9999 -9999 -9999 -9999 -9999 -9999 -9999 -9999 -9999 -9999 -9999 -9999 -9999 -9999 -9999 -9999 -9999 -9999 -9999 -9999 -9999 -9999 -9999 -9999 -9999 -9999 -9999 -9999 -9999 -9999 -9999 -9999 -9999 -9999 -9999 -9999 -9999 -9999 -9999 -9999 -9999 -9999 -9999 -9999 -9999 -9999 -9999 -9999 -9999 -9999 -9999 -9999 -9999 -9999 -9999 -9999 -9999 -9999 -9999 -9999 -9999 -9999 -9999 -9999 -9999 -9999 -9999 -9999 -9999 -9999 -9999 -9999 -9999 -9999 -9999 -9999 -9999 -9999 -9999 -9999 -9999 -9999 -9999 -9999 -9999 -9999 -9999 -9999 -9999 -9999 -9999 -9999 -9999 -9999 -9999 -9999 -9999 -9999 -9999 -9999 409.75 410 410 410 410 409 409 409.25 408.5 407 408 407 405 402 402.5 402 402 402 402.25 403 405 408.25 410 409.5 410 412 413.5 414 415 416 415 415 415 415.25 417.5 417 419 420 420 419 420.75 422 423 423 423 423.5 424 425 428 429 430 431 432.75 436 436 436 438 438 440 441 441 441.25 442 442.75 445 446 446.75 448 447 448 448 448.5 450 450 450 448.5 448.5 449 450.25 452 453 454.75 456 457.5 458 460.25 461 463 462 465.5 465 467 468 469 469 471 472.5 475 476 477 476 477 478 479.5 482 483 485 486.25 489 491 494.5 495.25 497 502 504.75 509 510 509 510.75 514.75 514 513.25 517 517.5 517 518.5 520.5 525 526.75 528.5 529 530 530 531 535.25 538.5 538.5 539 540 541.75 543 543 544 544 546.5 546 548 549.75 550 551 554 555.75 559 559 562 565 566 565 566 569.5 573 574 575 577 579.25 581 581 583 585 587 589 590 591 594.25 597 598 601 602 604.5 606 607 608 610.5 611 611.5 613 614 615 615 615 615 615 616 616 617 618 619.5 620 621 618.75 618 617 617 618.5 619 621.5 624 626 627 628 628 629.5 630 631.5 634.25 637.25 637.25 640 641 643 647.75 649.5 653 656 658 662 667.25 674 678 682.75 685 690.25 693.5 698 701 706 707 711 714.25 720 723.75 727.5 728 730.75 732 734 735.75 738 738.5 740.5 740 742 742 740.75 739 739 738 737 736.5 734.5 733 733 731.5 730.5 728.75 727.75 725.5 724.25 722.5 722.5 720 716.5 713.5 711 705.25 704.25 700 698 695 692 690 688.5 686 685 681 679 676 675.75 -9999 -9999 -9999 -9999 -9999 -9999 -9999 -9999 -9999 -9999 -9999 -9999 -9999 -9999 -9999 -9999 -9999 -9999 -9999 -9999 -9999 -9999 -9999 -9999 -9999 -9999 -9999 -9999 -9999 -9999 -9999 -9999 -9999 -9999 -9999 -9999 -9999 -9999 -9999 -9999 -9999 -9999 -9999 -9999 -9999 -9999 -9999 -9999 -9999 -9999 -9999 -9999 -9999 -9999 -9999 -9999 -9999 -9999 -9999 -9999 -9999 -9999 -9999 -9999 -9999 -9999 -9999 -9999 -9999 -9999 -9999 -9999 -9999 -9999 -9999 -9999 -9999 -9999 -9999 -9999 -9999 -9999 -9999 -9999 -9999 -9999 -9999 -9999 -9999 -9999 -9999 -9999 -9999 -9999
-9999 -9999 -9999 -9999 -9999 -9999 -9999 -9999 -9999 -9999 -9999 -9999 -9999 -9999 -9999 -9999 -9999 -9999 -9999 -9999 -9999 -9999 -9999 -9999 -9999 -9999 -9999 -9999 -9999 -9999 -9999 -9999 -9999 -9999 -9999 -9999 -9999 -9999 -9999 -9999 -9999 -9999 -9999 -9999 -9999 -9999 -9999 -9999 -9999 -9999 -9999 -9999 -9999 -9999 -9999 -9999 -9999 -9999 -9999 -9999 -9999 -9999 -9999 -9999 -9999 -9999 -9999 -9999 -9999 -9999 -9999 -9999 -9999 -9999 -9999 -9999 -9999 -9999 -9999 -9999 -9999 -9999 -9999 -9999 -9999 -9999 -9999 -9999 -9999 -9999 -9999 -9999 -9999 -9999 -9999 -9999 -9999 -9999 -9999 -9999 -9999 -9999 -9999 -9999 -9999 -9999 -9999 -9999 -9999 -9999 -9999 -9999 -9999 -9999 -9999 -9999 410 410 410 410 410 409 408 407.5 407 407 407 405.75 401.5 401 401 401 402.5 403 404 406 409 410 411 411.25 411.5 414 414.25 415 415 417 417 417 417 417.5 418.5 419.25 421 422 421.5 421 422.75 424 424.5 425 425.5 426.5 426 427 429 430 432.5 432 434 437.75 437 436.75 439 439.75 440 441 440.5 442 443.25 445 446 447 448 448 447 448 449 450 451 451 450 450 450 450 451 453 453 454.5 456 458 458 462 463.25 463.5 464.75 467 466 467 468 471 471 471.5 474 475 476 477 477 478.75 479.25 482 483.5 484 486.75 488 490.5 494 496.25 499.25 501 505.5 509.5 510 512.5 513.5 514.5 515 517 516.5 518 521 519.5 521.5 526 527 527.25 531 532 532.5 533 534 537 540 539 539.5 541.75 543.25 544 544 545 546 547 548 549.75 551 552 551.75 555.5 558 560 561 563 565 567 567 568.5 571.75 574 574 576.75 578.75 581 582 583 584.75 586 587 589.25 591 592 594.25 597 598.5 601 602.75 604.25 606 607 609 611 612 613 614 615 615 616 616 616 616 616.75 617 619.25 619.75 621 622 619 617 617 617 618.75 619.75 620 622.25 624.25 627 627 628.25 629 630.25 631 632 634 638 639 641 642.5 645 647.25 652.25 654.5 657 660 662 669.25 676 678 682.75 687 692 694 698 701 705.75 709 714 717 720 723 727 729 731 734 735 737 739.5 740 742 743 744 745 743 741 740 740 738.75 738 736 735 734 733 731 731 730 728 727.5 725.75 723.75 721 720.75 716 714 708 704.25 701 699.75 695 693 690 689 685.5 684 682 679 -9999 -9999 -9999 -9999 -9999 -9999 -9999 -9999 -9999 -9999 -9999 -9999 -9999 -9999 -9999 -9999 -9999 -9999 -9999 -9999 -9999 -9999 -9999 -9999 -9999 -9999 -9999 -9999 -9999 -9999 -9999 -9999 -9999 -9999 -9999 -9999 -9999 -9999 -9999 -9999 -9999 -9999 -9999 -9999 -9999 -9999 -9999 -9999 -9999 -9999 -9999 -9999 -9999 -9999 -9999 -9999 -9999 -9999 -9999 -9999 -9999 -9999 -9999 -9999 -9999 -9999 -9999 -9999 -9999 -9999 -9999 -9999 -9999 -9999 -9999 -9999 -9999 -9999 -9999 -9999 -9999 -9999 -9999 -9999 -9999 -9999 -9999 -9999 -9999 -9999 -9999 -9999 -9999 -9999 -9999 -9999
-9999 -9999 -9999 -9999 -9999 -9999 -9999 -9999 -9999 -9999 -9999 -9999 -9999 -9999 -9999 -9999 -9999 -9999 -9999 -9999 -9999 -9999 -9999 -9999 -9999 -9999 -9999 -9999 -9999 -9999 -9999 -9999 -9999 -9999 -9999 -9999 -9999 -9999 -9999 -9999 -9999 -9999 -9999 -9999 -9999 -9999 -9999 -9999 -9999 -9999 -9999 -9999 -9999 -9999 -9999 -9999 -9999 -9999 -9999 -9999 -9999 -9999 -9999 -9999 -9999 -9999 -9999 -9999 -9999 -9999 -9999 -9999 -9999 -9999 -9999 -9999 -9999 -9999 -9999 -9999 -9999 -9999 -9999 -9999 -9999 -9999 -9999 -9999 -9999 -9999 -9999 -9999 -9999 -9999 -9999 -9999 -9999 -9999 -9999 -9999 -9999 -9999 -9999 -9999 -9999 -9999 -9999 -9999 -9999 -9999 -9999 -9999 -9999 -9999 -9999 -9999 -9999 410 410 409 409 407 407 405 405 406 404.5 402.25 402 403 403 404 406 407 407.5 407.5 410.25 411.5 412 413.5 414.75 415 417 416 416 417.75 417 418 422 421 421 421 422.75 423 423.5 423.75 427 426 426 426.75 428.75 430 430 430.75 432 433 434 435.25 438.5 439.75 439 438 439 441 441 441 442.5 443 446 446 447 448 448 449 449 451 449.5 451 451.25 452 452 452.5 453 452 455 455 455 454.75 457 458 459 462 463.25 465.25 467 467.5 467 469 471 473.5 474 474.25 476 477.5 477.5 478 480.5 483.25 484 487.75 489 488.5 489.5 493.5 494.75 499.25 500 503 508 511 511.5 514 515 516 517 518.5 519.5 522 522.25 522.5 524 526 527 527 528.75 533 535.75 537 535.5 538 540 541 541.5 542 543.25 545 545.5 545 547 548 549 550 552.5 553.5 556 555.5 557.5 561 562 562 564 566 567 568.25 571 573 575 576 579 582 584.5 584 586.5 587 588.25 589 590 591.5 594.75 595.75 599 600.5 603 605 606 606.75 609.75 611.25 612.5 614 615 616 616 617 617 618 618 617 617 619 620.25 621 622 620.25 617 617.75 618 619 620.75 623 624 625 626 627.75 628 629 630 631 632 633.25 635 639 641 642 644.25 649 650 654 657 660 661.5 666.25 669.25 675 678.75 685 687.5 692 693.5 698 702.5 707 710.75 714.75 718.25 721.25 724 726 729 733 735 737 738 741 743 745 745 748 747.5 745.75 744.5 743 742 741 740 739 737.5 736.25 735 734 733 733 731 729.75 727.5 726 723 721.25 717 714 709.5 706 701.5 698 696 694.5 691 689 -9999 -9999 -9999 -9999 -9999 -9999 -9999 -9999 -9999 -9999 -9999 -9999 -9999 -9999 -9999 -9999 -9999 -9999 -9999 -9999 -9999 -9999 -9999 -9999 -9999 -9999 -9999 -9999 -9999 -9999 -9999 -9999 -9999 -9999 -9999 -9999 -9999 -9999 -9999 -9999 -9999 -9999 -9999 -9999 -9999 -9999 -9999 -9999 -9999 -9999 -9999 -9999 -9999 -9999 -9999 -9999 -9999 -9999 -9999 -9999 -9999 -9999 -9999 -9999 -9999 -9999 -9999 -9999 -9999 -9999 -9999 -9999 -9999 -9999 -9999 -9999 -9999 -9999 -9999 -9999 -9999 -9999 -9999 -9999 -9999 -9999 -9999 -9999 -9999 -9999 -9999 -9999 -9999 -9999 -9999 -9999 -9999 -9999 -9999 -9999
-9999 -9999 -9999 -9999 -9999 -9999 -9999 -9999 -9999 -9999 -9999 -9999 -9999 -9999 -9999 -9999 -9999 -9999 -9999 -9999 -9999 -9999 -9999 -9999 -9999 -9999 -9999 -9999 -9999 -9999 -9999 -9999 -9999 -9999 -9999 -9999 -9999 -9999 -9999 -9999 -9999 -9999 -9999 -9999 -9999 -9999 -9999 -9999 -9999 -9999 -9999 -9999 -9999 -9999 -9999 -9999 -9999 -9999 -9999 -9999 -9999 -9999 -9999 -9999 -9999 -9999 -9999 -9999 -9999 -9999 -9999 -9999 -9999 -9999 -9999 -9999 -9999 -9999 -9999 -9999 -9999 -9999 -9999 -9999 -9999 -9999 -9999 -9999 -9999 -9999 -9999 -9999 -9999 -9999 -9999 -9999 -9999 -9999 -9999 -9999 -9999 -9999 -9999 -9999 -9999 -9999 -9999 -9999 -9999 -9999 -9999 -9999 -9999 -9999 -9999 -9999 -9999 409 409.75 409 408 406 405 405 404 404 403 401 402 403.25 405.75 406.5 408 409 410.75 411 411 411 413 414.25 417 417.5 418 417 418 418 418 421 423.5 423.75 422 422 424 425 425 425 428 429.5 427.25 427.75 429.75 432 432.5 432 434 436 437 438.75 440.5 440.25 440 440.5 441 442 442 441.5 444 445 446 447 448 448 448 448 451 451 449 451 452 452 453 453 453 454.25 456 457 456 456.25 459.75 460 460 461 463 466 466 467 468 470.25 473 475 476.5 476.5 477 479 479 481.75 485 486.75 487 489.75 493 493 495.25 497.75 498.75 501 502 505 510 513 513 515 517 518 519 520.5 521 522 523 525.25 527 528 528 528 531.5 536 537 538 537 538 540 542 543 544 545 545 546 546 548 550 549 550 553 556 557.5 558.5 559.5 562.25 564 564 564.25 566 569.5 571 573 574 577 579 582 584 586.5 586.25 587.5 590 591 592 592.75 593.5 595.5 598 601 603.75 605.5 605.5 608 608 611 613 614.5 615 616.5 617 617 618 618 618 618 618.25 619 620 620 621 620 618.75 616 617.25 619 620 621 623.25 624 626 627 628 629 630 630 632 632 634.5 637 639 641.25 644 647 651.25 653.75 656.5 658.5 661 662 668.25 671 676 679.75 685 688 693 695 700 704 707.25 710.25 715 718.25 723 725 726 728 732 735.25 737.25 740 742.5 744 747.25 747.25 749 750 748 746.5 745.5 744 743 741.25 739.5 738 738 737 736 734 733 731 731 728.5 726 722 720 716.5 714 711 707.25 702 699 696.5 695 -9999 -9999 -9999 -9999 -9999 -9999 -9999 -9999 -9999 -9999 -9999 -9999 -9999 -9999 -9999 -9999 -9999 -9999 -9999 -9999 -9999 -9999 -9999 -9999 -9999 -9999 -9999 -9999 -9999 -9999 -9999 -9999 -9999 -9999 -9999 -9999 -9999 -9999 -9999 -9999 -9999 -9999 -9999 -9999 -9999 -9999 -9999 -9999 -9999 -9999 -9999 -9999 -9999 -9999 -9999 -9999 -9999 -9999 -9999 -9999 -9999 -9999 -9999 -9999 -9999 -9999 -9999 -9999 -9999 -9999 -9999 -9999 -9999 -9999 -9999 -9999 -9999 -9999 -9999 -9999 -9999 -9999 -9999 -9999 -9999 -9999 -9999 -9999 -9999 -9999 -9999 -9999 -9999 -9999 -9999 -9999 -9999 -9999 -9999 -9999 -9999 -9999
-9999 -9999 -9999 -9999 -9999 -9999 -9999 -9999 -9999 -9999 -9999 -9999 -9999 -9999 -9999 -9999 -9999 -9999 -9999 -9999 -9999 -9999 -9999 -9999 -9999 -9999 -9999 -9999 -9999 -9999 -9999 -9999 -9999 -9999 -9999 -9999 -9999 -9999 -9999 -9999 -9999 -9999 -9999 -9999 -9999 -9999 -9999 -9999 -9999 -9999 -9999 -9999 -9999 -9999 -9999 -9999 -9999 -9999 -9999 -9999 -9999 -9999 -9999 -9999 -9999 -9999 -9999 -9999 -9999 -9999 -9999 -9999 -9999 -9999 -9999 -9999 -9999 -9999 -9999 -9999 -9999 -9999 -9999 -9999 -9999 -9999 -9999 -9999 -9999 -9999 -9999 -9999 -9999 -9999 -9999 -9999 -9999 -9999 -9999 -9999 -9999 -9999 -9999 -9999 -9999 -9999 -9999 -9999 -9999 -9999 -9999 -9999 -9999 -9999 -9999 -9999 -9999 408 408 406 406.5 406 403 403 402 401 402 403.25 405.75 407 407.25 409 409 410 411 413 414 415.25 414.5 416 418.25 420 419.75 420.75 420.5 419 420.5 425 427 425.25 424 425 425 427 426.5 427.75 432 431 430 432.5 433 433 436 436 436.5 439 441 441.75 441.5 442 442.75 444 444 443 444 444 444 446 447 447 448 449 448 449 452 451 450.25 451 452 452 452.25 453.5 454.5 457 458 460 461.5 461 461 463 462 462.5 464 465.25 466 469 469.25 473 474 475 478 479 480 480.5 484 485.75 487.75 490 492 495 495.5 497.75 498.5 502 502 504.25 507 510 512 514 515 517 519 521 520.5 523 523 523.5 525 527 529 529 529 529 532.25 535 537 536.25 537 539 540 541.25 543 545 546 546 547 548 551 551 551.5 551 554 557 559.75 561 565 565.75 565 565 566 568.75 571.5 573 576 576.5 580 582 585 587 589 590 591 593 594 594 596.5 598 600.75 602 604 606 608 609 610 611 612 614.25 618.5 619 618.5 618.5 619 619 620 619.5 620 620 620 619.5 618.25 618 617 616 617 618 620 621 622 624 625 627 628 629 629.75 631 631.25 632 633 635.25 638 642 643 645.25 649 654.25 656 659 660 663 665 668 672 679.75 683 685.5 688.5 693.75 696.75 702.25 705 709 711.25 716 720 724 726 728 729 731 734 739 741 743.75 744.25 748 750 752 753 750 749 748 747 744 742 740 738 739 738 737 736.75 734 732 731 729 727 723 720 717 715 711.75 708 -9999 -9999 -9999 -9999 -9999 -9999 -9999 -9999 -9999 -9999 -9999 -9999 -9999 -9999 -9999 -9999 -9999 -9999 -9999 -9999 -9999 -9999 -9999 -9999 -9999 -9999 -9999 -9999 -9999 -9999 -9999 -9999 -9999 -9999 -9999 -9999 -9999 -9999 -9999 -9999 -9999 -9999 -9999 -9999 -9999 -9999 -9999 -9999 -9999 -9999 -9999 -9999 -9999 -9999 -9999 -9999 -9999 -9999 -9999 -9999 -9999 -9999 -9999 -9999 -9999 -9999 -9999 -9999 -9999 -9999 -9999 -9999 -9999 -9999 -9999 -9999 -9999 -9999 -9999 -9999 -9999 -9999 -9999 -9999 -9999 -9999 -9999 -9999 -9999 -9999 -9999 -9999 -9999 -9999 -9999 -9999 -9999 -9999 -9999 -9999 -9999 -9999 -9999 -9999 -9999 -9999
-9999 -9999 -9999 -9999 -9999 -9999 -9999 -9999 -9999 -9999 -9999 -9999 -9999 -9999 -9999 -9999 -9999 -9999 -9999 -9999 -9999 -9999 -9999 -9999 -9999 -9999 -9999 -9999 -9999 -9999 -9999 -9999 -9999 -9999 -9999 -9999 -9999 -9999 -9999 -9999 -9999 -9999 -9999 -9999 -9999 -9999 -9999 -9999 -9999 -9999 -9999 -9999 -9999 -9999 -9999 -9999 -9999 -9999 -9999 -9999 -9999 -9999 -9999 -9999 -9999 -9999 -9999 -9999 -9999 -9999 -9999 -9999 -9999 -9999 -9999 -9999 -9999 -9999 -9999 -9999 -9999 -9999 -9999 -9999 -9999 -9999 -9999 -9999 -9999 -9999 -9999 -9999 -9999 -9999 -9999 -9999 -9999 -9999 -9999 -9999 -9999 -9999 -9999 -9999 -9999 -9999 -9999 -9999 -9999 -9999 -9999 -9999 -9999 -9999 -9999 -9999 -9999 407 407 405 405 404 402 401 401 402 404 406 407.75 408 409 410 410 411.5 413 414 415 416.5 416.25 416.5 418.75 420.5 421 422 421 421 422 425 427 426 425 426 427 428 428.5 429.25 432 432.5 433 435 434 435 436 437 439 440 441 442 442.5 442.5 444 445 445 444 444 444 445 446 447 447 448 450 449 450 452 451 450.5 451 451.5 452 453 453 455 457 460.25 462 463 464 463 464 464 465 466 467.5 468.5 470 471.25 473 474 478 479.25 480 480.5 482.25 484.75 488.75 490.5 490.75 494 497 497.5 500.25 502 502 503 506.75 508.5 512.25 513 515 515.75 517.75 519 521 522 523.75 524 525 525.75 528.25 529 529 530 530 533 536.5 536 536.5 539 541 541.5 542 543 545 546.5 547 548 550.75 554.5 552.5 555 553.5 555.25 558 561.5 563 565 566 565 565.5 568 571 574 575.25 576.5 579.25 580.5 583.25 587 588 591 592 592.25 593.25 595.25 595.75 598 600.25 603 603.25 606 607 609 610.5 612 613 613 613.75 618 619 620 619.5 619.5 619 619 619 619 619 618 619 618 617 616 617 618 619 621 622 622.25 625 626 627 628 629 630 631 632.25 633 634 636.25 638 642 645 648 651 655 656 659.25 662 665.75 668 670 671.25 680 682 686 691 695 698.25 703 704.75 710 713.5 718 720 724.25 726 730 731.5 734 735.5 738.75 740.75 744 745 749.75 752 753 753.5 752 750 748 747 745 742 741 740 739 739 739 737 736 733 731.5 728 726 724 721 718 -9999 -9999 -9999 -9999 -9999 -9999 -9999 -9999 -9999 -9999 -9999 -9999 -9999 -9999 -9999 -9999 -9999 -9999 -9999 -9999 -9999 -9999 -9999 -9999 -9999 -9999 -9999 -9999 -9999 -9999 -9999 -9999 -9999 -9999 -9999 -9999 -9999 -9999 -9999 -9999 -9999 -9999 -9999 -9999 -9999 -9999 -9999 -9999 -9999 -9999 -9999 -9999 -9999 -9999 -9999 -9999 -9999 -9999 -9999 -9999 -9999 -9999 -9999 -9999 -9999 -9999 -9999 -9999 -9999 -9999 -9999 -9999 -9999 -9999 -9999 -9999 -9999 -9999 -9999 -9999 -9999 -9999 -9999 -9999 -9999 -9999 -9999 -9999 -9999 -9999 -9999 -9999 -9999 -9999 -9999 -9999 -9999 -9999 -9999 -9999 -9999 -9999 -9999 -9999 -9999 -9999 -9999 -9999 -9999
-9999 -9999 -9999 -9999 -9999 -9999 -9999 -9999 -9999 -9999 -9999 -9999 -9999 -9999 -9999 -9999 -9999 -9999 -9999 -9999 -9999 -9999 -9999 -9999 -9999 -9999 -9999 -9999 -9999 -9999 -9999 -9999 -9999 -9999 -9999 -9999 -9999 -9999 -9999 -9999 -9999 -9999 -9999 -9999 -9999 -9999 -9999 -9999 -9999 -9999 -9999 -9999 -9999 -9999 -9999 -9999 -9999 -9999 -9999 -9999 -9999 -9999 -9999 -9999 -9999 -9999 -9999 -9999 -9999 -9999 -9999 -9999 -9999 -9999 -9999 -9999 -9999 -9999 -9999 -9999 -9999 -9999 -9999 -9999 -9999 -9999 -9999 -9999 -9999 -9999 -9999 -9999 -9999 -9999 -9999 -9999 -9999 -9999 -9999 -9999 -9999 -9999 -9999 -9999 -9999 -9999 -9999 -9999 -9999 -9999 -9999 -9999 -9999 -9999 -9999 -9999 -9999 -9999 403.5 404 401.25 401 401 402 403 405 407 409 409.5 409 410.75 412 412 414 416 416 416.75 418 419 420 419 421 423 423 423 423 422 425 427 427 427 428 429 430 430 431 434.75 434.25 435 435.25 436 436 438 438.5 440 441 441 444 444 443.5 444 445 445 446 446 446.5 447.5 447.25 447 447.5 449 450.75 450 451 452 453 453 452 453 453.5 455 455 456.75 460 461 462 463 464 465.75 467 466.5 466.5 468.75 471.25 472.25 473 474 476 476 479.5 482 483 484.5 487.5 489.5 491 492.75 496 497.5 501 500 502 503 504.5 505 507 510 514 515 516 517 519 520 521 521.75 523 525 526.25 528 528.25 529 531.75 532 535.25 536.5 539.25 540 539.5 539 542 542 543 544 546 547.25 548.25 551.5 554 557.5 558 558 558 557.5 558 562 562 563.25 565.25 568.5 570 572.25 573 575 577 578.75 580 583.75 585.5 588.5 590 592.5 593 594.25 596 596 598 600 601.25 604 605 607 609.5 612 612 614 614 613.75 613 613 614.5 614.5 618 615.5 616 616 616.5 616 616.5 617 617 617 616 617 618 619 620 622 623 624 625.25 627 629 629 630 631 632 633 634 634.75 637.25 640 643.25 646.25 650 652.75 655 658 660.75 663.75 667 669 671 673.75 679 682 687.75 692 697.5 698 703 706.5 709.5 712 718 720.25 725.5 727.75 731 734.25 737 738 739.5 741 744.5 746.25 750 753 755 755 753 752.25 750.25 748 746 745 744 744 742 741.75 741.75 740 738.5 735 733 729 728 -9999 -9999 -9999 -9999 -9999 -9999 -9999 -9999 -9999 -9999 -9999 -9999 -9999 -9999 -9999 -9999 -9999 -9999 -9999 -9999 -9999 -9999 -9999 -9999 -9999 -9999 -9999 -9999 -9999 -9999 -9999 -9999 -9999 -9999 -9999 -9999 -9999 -9999 -9999 -9999 -9999 -9999 -9999 -9999 -9999 -9999 -9999 -9999 -9999 -9999 -9999 -9999 -9999 -9999 -9999 -9999 -9999 -9999 -9999 -9999 -9999 -9999 -9999 -9999 -9999 -9999 -9999 -9999 -9999 -9999 -9999 -9999 -9999 -9999 -9999 -9999 -9999 -9999 -9999 -9999 -9999 -9999 -9999 -9999 -9999 -9999 -9999 -9999 -9999 -9999 -9999 -9999 -9999 -9999 -9999 -9999 -9999 -9999 -9999 -9999 -9999 -9999 -9999 -9999 -9999 -9999 -9999 -9999 -9999 -9999 -9999 -9999
-9999 -9999 -9999 -9999 -9999 -9999 -9999 -9999 -9999 -9999 -9999 -9999 -9999 -9999 -9999 -9999 -9999 -9999 -9999 -9999 -9999 -9999 -9999 -9999 -9999 -9999 -9999 -9999 -9999 -9999 -9999 -9999 -9999 -9999 -9999 -9999 -9999 -9999 -9999 -9999 -9999 -9999 -9999 -9999 -9999 -9999 -9999 -9999 -9999 -9999 -9999 -9999 -9999 -9999 -9999 -9999 -9999 -9999 -9999 -9999 -9999 -9999 -9999 -9999 -9999 -9999 -9999 -9999 -9999 -9999 -9999 -9999 -9999 -9999 -9999 -9999 -9999 -9999 -9999 -9999 -9999 -9999 -9999 -9999 -9999 -9999 -9999 -9999 -9999 -9999 -9999 -9999 -9999 -9999 -9999 -9999 -9999 -9999 -9999 -9999 -9999 -9999 -9999 -9999 -9999 -9999 -9999 -9999 -9999 -9999 -9999 -9999 -9999 -9999 -9999 -9999 -9999 -9999 401 401 400 402 403 403 406 407 408 410 411 410 412 414 414 415 418 417.5 418.75 419.25 421 420 420 422 423 423 424 423 423.5 426 427 428 429.5 430 429 430.75 431.25 433 436 436 435 437 437 437 439 440 440 441 443 444 445 444 444.75 446 447 447 447 448.5 448.5 449 448 448 450 451 451 452 451 454 454 453.5 453.5 454.75 457 456 459 462 462 462 463 465 467 470 468.5 469 470 473.75 474 475.5 476.75 477 478.25 480.25 483.75 486.25 487.5 491.5 493 494 495.5 500 501 502.25 503 503 503 505.25 506 509 512.75 515 515 516.5 518 519.75 520.75 521 522 523 524 527 528 528 531 533.25 534.5 537 539.75 541 541 541 541 542.75 543 544 545 547 548 549 556 558 559 559 559 558 561.5 561 563 565.5 567 567 570 571.75 574 574.75 576 577.5 580 582 585 588 590 591 594 595 596 596.5 598 599 601 603 605 606 609 610.75 612 613 614 614 612 610.75 610.5 611 612.5 613 614.25 617.5 618.5 616.25 617 616 616 616 616 616 617 618.5 620 621 623 623 624 625 627 628.25 629.5 631 631 633 633 635 635.5 639 641 644 647 651.5 653 656.25 659.25 661 663 666 668 671.25 678.75 680 682 687.75 692.25 697 699 703.5 706 710 712.75 718.25 722 727 729 731.25 734 738 739 740.75 744 746 747.5 751 753 756 756 754 753.5 751.25 749 748.5 747.5 746.5 746 745 744 743 740 738 736 -9999 -9999 -9999 -9999 -9999 -9999 -9999 -9999 -9999 -9999 -9999 -9999 -9999 -9999 -9999 -9999 -9999 -9999 -9999 -9999 -9999 -9999 -9999 -9999 -9999 -9999 -9999 -9999 -9999 -9999 -9999 -9999 -9999 -9999 -9999 -9999 -9999 -9999 -9999 -9999 -9999 -9999 -9999 -9999 -9999 -9999 -9999 -9999 -9999 -9999 -9999 -9999 -9999 -9999 -9999 -9999 -9999 -9999 -9999 -9999 -9999 -9999 -9999 -9999 -9999 -9999 -9999 -9999 -9999 -9999 -9999 -9999 -9999 -9999 -9999 -9999 -9999 -9999 -9999 -9999 -9999 -9999 -9999 -9999 -9999 -9999 -9999 -9999 -9999 -9999 -9999 -9999 -9999 -9999 -9999 -9999 -9999 -9999 -9999 -9999 -9999 -9999 -9999 -9999 -9999 -9999 -9999 -9999 -9999 -9999 -9999 -9999 -9999 -9999 -9999
-9999 -9999 -9999 -9999 -9999 -9999 -9999 -9999 -9999 -9999 -9999 -9999 -9999 -9999 -9999 -9999 -9999 -9999 -9999 -9999 -9999 -9999 -9999 -9999 -9999 -9999 -9999 -9999 -9999 -9999 -9999 -9999 -9999 -9999 -9999 -9999 -9999 -9999 -9999 -9999 -9999 -9999 -9999 -9999 -9999 -9999 -9999 -9999 -9999 -9999 -9999 -9999 -9999 -9999 -9999 -9999 -9999 -9999 -9999 -9999 -9999 -9999 -9999 -9999 -9999 -9999 -9999 -9999 -9999 -9999 -9999 -9999 -9999 -9999 -9999 -9999 -9999 -9999 -9999 -9999 -9999 -9999 -9999 -9999 -9999 -9999 -9999 -9999 -9999 -9999 -9999 -9999 -9999 -9999 -9999 -9999 -9999 -9999 -9999 -9999 -9999 -9999 -9999 -9999 -9999 -9999 -9999 -9999 -9999 -9999 -9999 -9999 -9999 -9999 -9999 -9999 -9999 -9999 -9999 403 403.5 403.25 405 407 407 408.5 409 410 411.25 412 414 415 416.5 417 419 420 420 420.5 423 423 421 422 422 423 425 425 425 427.75 428.5 428.25 431.75 432.75 431 432 433 434 436.25 438 438 438 439 439 440 441 442 444 446 446 446 446.5 447 449 450 449 449 450 449 449 450 450 451 451 452 452 454 454.75 455 455 455 456 458 459 459.25 463 464.75 464 466 469 470.5 470.5 471 471 474 477 476 477 480 480 480 483.5 486 490.5 494.5 496.5 499.25 500 499 502 504 503 503.25 503 503 507.25 509 511 514 515 516 517.25 519 520.5 521 522 523 524 524.75 527 529.25 533.25 533 535.75 537 539 540 541 542 542 543 543 544 546 547 548 550 551.75 556 559 560 560 560.5 562 565 566 567.5 568.75 570.5 570 572 574.5 576.75 577 578.5 579.5 582 584 587 589.25 593 593.25 597 597 598.5 599 600 601 602.25 604 606 607.25 610 611 613 614 613 612 610 609 610 611 612 614 618.75 621.5 622.5 622.25 620.5 620 618 617.25 618.5 618 618 618 619.25 621.75 623 623 624 625 627 628 629 631 631.75 632.5 633 635 637 640 642 645 647.5 651 653.75 657 659 663 664 668 670 675.75 679 681 682.75 688 691.5 695.75 698.5 703 707 710.5 714 720.5 724.25 727.25 729.75 733 735 738 741 743 745 750 750 751.75 754.5 757 757 755.25 755 753 752.5 751.5 750 751 749.5 748.5 746.75 743.75 -9999 -9999 -9999 -9999 -9999 -9999 -9999 -9999 -9999 -9999 -9999 -9999 -9999 -9999 -9999 -9999 -9999 -9999 -9999 -9999 -9999 -9999 -9999 -9999 -9999 -9999 -9999 -9999 -9999 -9999 -9999 -9999 -9999 -9999 -9999 -9999 -9999 -9999 -9999 -9999 -9999 -9999 -9999 -9999 -9999 -9999 -9999 -9999 -9999 -9999 -9999 -9999 -9999 -9999 -9999 -9999 -9999 -9999 -9999 -9999 -9999 -9999 -9999 -9999 -9999 -9999 -9999 -9999 -9999 -9999 -9999 -9999 -9999 -9999 -9999 -9999 -9999 -9999 -9999 -9999 -9999 -9999 -9999 -9999 -9999 -9999 -9999 -9999 -9999 -9999 -9999 -9999 -9999 -9999 -9999 -9999 -9999 -9999 -9999 -9999 -9999 -9999 -9999 -9999 -9999 -9999 -9999 -9999 -9999 -9999 -9999 -9999 -9999 -9999 -9999 -9999 -9999 -9999
-9999 -9999 -9999 -9999 -9999 -9999 -9999 -9999 -9999 -9999 -9999 -9999 -9999 -9999 -9999 -9999 -9999 -9999 -9999 -9999 -9999 -9999 -9999 -9999 -9999 -9999 -9999 -9999 -9999 -9999 -9999 -9999 -9999 -9999 -9999 -9999 -9999 -9999 -9999 -9999 -9999 -9999 -9999 -9999 -9999 -9999 -9999 -9999 -9999 -9999 -9999 -9999 -9999 -9999 -9999 -9999 -9999 -9999 -9999 -9999 -9999 -9999 -9999 -9999 -9999 -9999 -9999 -9999 -9999 -9999 -9999 -9999 -9999 -9999 -9999 -9999 -9999 -9999 -9999 -9999 -9999 -9999 -9999 -9999 -9999 -9999 -9999 -9999 -9999 -9999 -9999 -9999 -9999 -9999 -9999 -9999 -9999 -9999 -9999 -9999 -9999 -9999 -9999 -9999 -9999 -9999 -9999 -9999 -9999 -9999 -9999 -9999 -9999 -9999 -9999 -9999 -9999 -9999 -9999 405 405 405 406 408 409 409 409.5 411.5 412 413.5 415 416.25 418 418 420 421 421 421 423 424 423 425 423.25 423.75 425 427 427 428 429 429.25 433 434 432.25 433 434 435 438 439 439.75 439 440 440 441 442 443 444 446 448 448 449 449 449 449 449 450 450.75 450 449.5 451.5 452 452 453 452 453 454 454 455 455 455.75 457 458 459 461 463.25 465 466 467 468.5 471 472 473 474 475.75 477 478 480 482 481 481 486 489.5 494 496 500 501.5 501 501.5 503 503 502 503 503 506 510 511 512 513.5 515 516 517 519 520.25 521.75 523.5 524 525 525 529 531 533 535 537 538.75 540 540 541.25 542 543 543 544 544.75 547.25 549 549 551 553.75 557 558 559 559.25 563 566.5 566.25 569 570 571 571.5 573 573.5 576 578 578.25 580 582.25 584.75 586 589 591 594 596 598 599 600 600 601.75 602.5 605 606 607 608 610 611 613 614 613 610 608 608 611 612 613 615 620 623 623 624 622 621 620 619 619 619.5 619 618 619 621 622 623 624 626 627 628 629 630 631 633 633 635.25 637.25 640 641.75 646 648 651 653 656 659.5 663 665.5 669 671 677 679 681 684.25 689 692 695 698 702 706 712.25 715 720.25 724 727.75 730.25 734 736 739 741 744 746.25 749 751 752.5 752 756 757 756.25 756 755 754.5 754 753 752 750 749 -9999 -9999 -9999 -9999 -9999 -9999 -9999 -9999 -9999 -9999 -9999 -9999 -9999 -9999 -9999 -9999 -9999 -9999 -9999 -9999 -9999 -9999 -9999 -9999 -9999 -9999 -9999 -9999 -9999 -9999 -9999 -9999 -9999 -9999 -9999 -9999 -9999 -9999 -9999 -9999 -9999 -9999 -9999 -9999 -9999 -9999 -9999 -9999 -9999 -9999 -9999 -9999 -9999 -9999 -9999 -9999 -9999 -9999 -9999 -9999 -9999 -9999 -9999 -9999 -9999 -9999 -9999 -9999 -9999 -9999 -9999 -9999 -9999 -9999 -9999 -9999 -9999 -9999 -9999 -9999 -9999 -9999 -9999 -9999 -9999 -9999 -9999 -9999 -9999 -9999 -9999 -9999 -9999 -9999 -9999 -9999 -9999 -9999 -9999 -9999 -9999 -9999 -9999 -9999 -9999 -9999 -9999 -9999 -9999 -9999 -9999 -9999 -9999 -9999 -9999 -9999 -9999 -9999 -9999 -9999
-9999 -9999 -9999 -9999 -9999 -9999 -9999 -9999 -9999 -9999 -9999 -9999 -9999 -9999 -9999 -9999 -9999 -9999 -9999 -9999 -9999 -9999 -9999 -9999 -9999 -9999 -9999 -9999 -9999 -9999 -9999 -9999 -9999 -9999 -9999 -9999 -9999 -9999 -9999 -9999 -9999 -9999 -9999 -9999 -9999 -9999 -9999 -9999 -9999 -9999 -9999 -9999 -9999 -9999 -9999 -9999 -9999 -9999 -9999 -9999 -9999 -9999 -9999 -9999 -9999 -9999 -9999 -9999 -9999 -9999 -9999 -9999 -9999 -9999 -9999 -9999 -9999 -9999 -9999 -9999 -9999 -9999 -9999 -9999 -9999 -9999 -9999 -9999 -9999 -9999 -9999 -9999 -9999 -9999 -9999 -9999 -9999 -9999 -9999 -9999 -9999 -9999 -9999 -9999 -9999 -9999 -9999 -9999 -9999 -9999 -9999 -9999 -9999 -9999 -9999 -9999 -9999 -9999 -9999 405.5 406 408 407.75 409 410 411 412.5 415 415 415.5 417 418 420 420 421 421 422 423.5 425 425.5 425 426.25 425 425 427.5 429 430 429 431 433 435 435 436 435 434.5 436 439 440 441 441 441.25 442 442 444 444 444.75 446 447 448 447.5 449 450 449 449 451 451 452 453 453 453 453 453.5 453.25 454 455 455 456 455 457 458 459.25 461.5 463 467 466 468.5 469 470 471 473.25 475.75 478 477 479 480.5 482 482 483 483 487.75 490 495 497.25 501 501 502 501.75 502 501 501 503 505 509.75 512 511.5 513.5 514.5 515 516 517 518 521 521 524 526 526.25 528 531.75 533 534 535.75 538 539.75 540 540 542 542 543 544 545.75 548 550 551.25 553 555 556 556 557 559.75 563 566 567.5 569.5 570.75 572.25 573 573 578 578 578.5 580 581.25 583 586 586.25 588.5 591.75 595 597.75 599 600 601 603 602.75 604 605 607 608 609 609.5 611 612 614 614 610 609 608 609.25 612 613 616.5 618.25 621 621 621 621.5 620 620.5 620 621 621 621 620 620 621 623 623 624 625 626 626.5 627 628.5 630 631 632 634 637 638 641 644.25 648 650 653 653 657.25 659 662.5 665 669 672.75 677 677.5 681 685.5 690.5 692.75 695 698 702.75 705.5 710.5 716 723 725 729 731 734 736 739 741 743 745 747.75 749 750 751.5 753 755 756 756 756 756 756 -9999 -9999 -9999 -9999 -9999 -9999 -9999 -9999 -9999 -9999 -9999 -9999 -9999 -9999 -9999 -9999 -9999 -9999 -9999 -9999 -9999 -9999 -9999 -9999 -9999 -9999 -9999 -9999 -9999 -9999 -9999 -9999 -9999 -9999 -9999 -9999 -9999 -9999 -9999 -9999 -9999 -9999 -9999 -9999 -9999 -9999 -9999 -9999 -9999 -9999 -9999 -9999 -9999 -9999 -9999 -9999 -9999 -9999 -9999 -9999 -9999 -9999 -9999 -9999 -9999 -9999 -9999 -9999 -9999 -9999 -9999 -9999 -9999 -9999 -9999 -9999 -9999 -9999 -9999 -9999 -9999 -9999 -9999 -9999 -9999 -9999 -9999 -9999 -9999 -9999 -9999 -9999 -9999 -9999 -9999 -9999 -9999 -9999 -9999 -9999 -9999 -9999 -9999 -9999 -9999 -9999 -9999 -9999 -9999 -9999 -9999 -9999 -9999 -9999 -9999 -9999 -9999 -9999 -9999 -9999 -9999 -9999 -9999 -9999
-9999 -9999 -9999 -9999 -9999 -9999 -9999 -9999 -9999 -9999 -9999 -9999 -9999 -9999 -9999 -9999 -9999 -9999 -9999 -9999 -9999 -9999 -9999 -9999 -9999 -9999 -9999 -9999 -9999 -9999 -9999 -9999 -9999 -9999 -9999 -9999 -9999 -9999 -9999 -9999 -9999 -9999 -9999 -9999 -9999 -9999 -9999 -9999 -9999 -9999 -9999 -9999 -9999 -9999 -9999 -9999 -9999 -9999 -9999 -9999 -9999 -9999 -9999 -9999 -9999 -9999 -9999 -9999 -9999 -9999 -9999 -9999 -9999 -9999 -9999 -9999 -9999 -9999 -9999 -9999 -9999 -9999 -9999 -9999 -9999 -9999 -9999 -9999 -9999 -9999 -9999 -9999 -9999 -9999 -9999 -9999 -9999 -9999 -9999 -9999 -9999 -9999 -9999 -9999 -9999 -9999 -9999 -9999 -9999 -9999 -9999 -9999 -9999 -9999 -9999 -9999 -9999 -9999 -9999 406.25 407 409.25 410 409 410 412 413 415.5 416 417 418 419 421 421 422 422.5 424 425 426 426 427.25 428 427 427 428 430 431 431 432.5 434.5 435 436 436 437 436 436.25 438.75 441.5 442 442.25 443 443 444 445 444 446 447 447.25 448 448 449 449 450 450 451 452 454 455 453.75 453 454 453.75 454.5 456 456 456 456.5 457.5 457 458 462 463 465 467.25 468 469 470 472.5 473.5 476 477 479 479 480 482 483.5 483 484.75 487.5 489.25 492.25 497.25 500 501 501 499.75 500 500 500 501 502 505.5 509 512 513 514 515 517 517 517.25 519 521 521 523.5 526 527 529.25 533 533 534 536 539 540 540 540 542 543 544 544.75 547.75 550 552.75 553 554 556 556 556 557.5 560.5 564.75 568 568 572 572 575 575 576.25 579 580 580 581.25 583.5 585.5 587 589 590 593.25 597 597.75 601 602 603 604 605 605.5 606 609 608 610 612 612 612 613 612 608 608 609.5 610.25 614 615 618 620 621 620 620 620 620 620 620 621 621 621 621 621 621.5 623.25 625 625.25 626 626.5 627 628 629 630 630.5 632 635 638 639 642 644 649 651 653 655 659.25 662 662 665 668 671.5 676 677 681 685 690 692 696 700 703 706.75 711.25 715 721 725 729.25 729.25 733 735 736 740 742.25 744 746.25 748 749 750 752 753.75 755 755 756 -9999 -9999 -9999 -9999 -9999 -9999 -9999 -9999 -9999 -9999 -9999 -9999 -9999 -9999 -9999 -9999 -9999 -9999 -9999 -9999 -9999 -9999 -9999 -9999 -9999 -9999 -9999 -9999 -9999 -9999 -9999 -9999 -9999 -9999 -9999 -9999 -9999 -9999 -9999 -9999 -9999 -9999 -9999 -9999 -9999 -9999 -9999 -9999 -9999 -9999 -9999 -9999 -9999 -9999 -9999 -9999 -9999 -9999 -9999 -9999 -9999 -9999 -9999 -9999 -9999 -9999 -9999 -9999 -9999 -9999 -9999 -9999 -9999 -9999 -9999 -9999 -9999 -9999 -9999 -9999 -9999 -9999 -9999 -9999 -9999 -9999 -9999 -9999 -9999 -9999 -9999 -9999 -9999 -9999 -9999 -9999 -9999 -9999 -9999 -9999 -9999 -9999 -9999 -9999 -9999 -9999 -9999 -9999 -9999 -9999 -9999 -9999 -9999 -9999 -9999 -9999 -9999 -9999 -9999 -9999 -9999 -9999 -9999 -9999 -9999 -9999
-9999 -9999 -9999 -9999 -9999 -9999 -9999 -9999 -9999 -9999 -9999 -9999 -9999 -9999 -9999 -9999 -9999 -9999 -9999 -9999 -9999 -9999 -9999 -9999 -9999 -9999 -9999 -9999 -9999 -9999 -9999 -9999 -9999 -9999 -9999 -9999 -9999 -9999 -9999 -9999 -9999 -9999 -9999 -9999 -9999 -9999 -9999 -9999 -9999 -9999 -9999 -9999 -9999 -9999 -9999 -9999 -9999 -9999 -9999 -9999 -9999 -9999 -9999 -9999 -9999 -9999 -9999 -9999 -9999 -9999 -9999 -9999 -9999 -9999 -9999 -9999 -9999 -9999 -9999 -9999 -9999 -9999 -9999 -9999 -9999 -9999 -9999 -9999 -9999 -9999 -9999 -9999 -9999 -9999 -9999 -9999 -9999 -9999 -9999 -9999 -9999 -9999 -9999 -9999 -9999 -9999 -9999 -9999 -9999 -9999 -9999 -9999 -9999 -9999 -9999 -9999 -9999 -9999 -9999 -9999 410 410 411 410 411 413.25 414.75 416 417 418.5 418.75 419 422.75 423.5 424.75 425 427 428 428 428.5 428.5 429 431 430 431 433 433.5 434 434.75 436 436.75 438 437 438 438.75 437 440 441 443 444 444 444 444.75 445 445.25 446.5 448.5 448.5 450 451 451 450 451 452 453 453 454 456 455 455 456 457 458 457 456.5 457 458 460 461 460.25 463 466 468.5 469.75 471 471 473.25 476 475.5 478 481 482.5 482 482 485 486.25 487 489 492 491 493 499 499 497.75 497 499.75 502 500 500 502 503.5 505 508 511.5 513 514.75 515 517 518 519 521 522 521 523 525 527 531 534 534 538 537.75 539 540 538 539 543 544 546 547 549.5 550 552 553 555 554.25 557 561.5 562.5 565 566 569 570 574 575 576 577 580.75 581.5 583 584 586 587.5 591.5 590.5 592 595 597.75 598 601.5 602.25 604 605 606 607 608.5 609 610 610 611 612 611 612 611 607 608 608.75 610 613.25 615.75 617.25 620 620.5 620 620 620 619 619 619 620 620 621.25 622 622 622 622 624 625 627 627 627 628 629 630 631 631 635 637 639 639 642 646 648 650.5 654.75 657.25 662 663 665 665 668 671 675 676 680.5 685 689 691 694.5 700.5 705.5 706 711 715 719 721.25 725 728.5 730.25 733 736 737 740.5 744 745.25 746.5 748 749 751 -9999 -9999 -9999 -9999 -9999 -9999 -9999 -9999 -9999 -9999 -9999 -9999 -9999 -9999 -9999 -9999 -9999 -9999 -9999 -9999 -9999 -9999 -9999 -9999 -9999 -9999 -9999 -9999 -9999 -9999 -9999 -9999 -9999 -9999 -9999 -9999 -9999 -9999 -9999 -9999 -9999 -9999 -9999 -9999 -9999 -9999 -9999 -9999 -9999 -9999 -9999 -9999 -9999 -9999 -9999 -9999 -9999 -9999 -9999 -9999 -9999 -9999 -9999 -9999 -9999 -9999 -9999 -9999 -9999 -9999 -9999 -9999 -9999 -9999 -9999 -9999 -9999 -9999 -9999 -9999 -9999 -9999 -9999 -9999 -9999 -9999 -9999 -9999 -9999 -9999 -9999 -9999 -9999 -9999 -9999 -9999 -9999 -9999 -9999 -9999 -9999 -9999 -9999 -9999 -9999 -9999 -9999 -9999 -9999 -9999 -9999 -9999 -9999 -9999 -9999 -9999 -9999 -9999 -9999 -9999 -9999 -9999 -9999 -9999 -9999 -9999 -9999 -9999 -9999 -9999
-9999 -9999 -9999 -9999 -9999 -9999 -9999 -9999 -9999 -9999 -9999 -9999 -9999 -9999 -9999 -9999 -9999 -9999 -9999 -9999 -9999 -9999 -9999 -9999 -9999 -9999 -9999 -9999 -9999 -9999 -9999 -9999 -9999 -9999 -9999 -9999 -9999 -9999 -9999 -9999 -9999 -9999 -9999 -9999 -9999 -9999 -9999 -9999 -9999 -9999 -9999 -9999 -9999 -9999 -9999 -9999 -9999 -9999 -9999 -9999 -9999 -9999 -9999 -9999 -9999 -9999 -9999 -9999 -9999 -9999 -9999 -9999 -9999 -9999 -9999 -9999 -9999 -9999 -9999 -9999 -9999 -9999 -9999 -9999 -9999 -9999 -9999 -9999 -9999 -9999 -9999 -9999 -9999 -9999 -9999 -9999 -9999 -9999 -9999 -9999 -9999 -9999 -9999 -9999 -9999 -9999 -9999 -9999 -9999 -9999 -9999 -9999 -9999 -9999 -9999 -9999 -9999 -9999 -9999 -9999 410 412 412 413 413 413.25 415.75 418 418.5 419 420 420 423.25 425.5 425.5 427 428.25 429.5 429 430.75 430 429 432 432 432 435 435 434 436 438 438.5 439 438.5 439 438.75 438 440 441.25 443 444 445 444.5 446 446 446 447 449 449 450.5 451 453 451 452 453 454.75 453.5 455 457 455.25 456.25 457 458 458 457 457 458 459.5 461 462 462 463.75 466 469.25 471 473 473.5 474 478 478 480.75 483.5 484 483 486 487.5 489.5 490 493 493 495 495.25 498 498.75 499 498 501 501 501 501 504 505 506.25 509 511 512.25 514.25 516 518 519 520.75 521 523 524 523.75 525 527 530.5 533.75 536.75 539 538.5 540 539 539 539 543 545 548 548 549 550 552 553 553.5 556 559.75 564 565 567.25 568.75 571 571.25 575.25 576 578 579 582.5 585 586.5 588 589 591 593 594 594.75 598 600.5 600.5 603 604.5 606 607 608 609 609.5 610 610.5 611 610.5 611 609 609.75 609 607 608 609 611 614 617 618 620 620 620 620 619 619 619 619 619 620 621.5 622 623 623 623 624 625 627 628 628 629 630 630 632 633 636 637 639 639 642.25 645.5 649.25 652 655 658.75 662.25 664 666 666.5 669 671.5 674.25 676 682 685 689 690.25 694.5 699.5 704 707 712 714.75 717.75 719 724 726.25 730.25 733 735 737 740 742.5 745 746 -9999 -9999 -9999 -9999 -9999 -9999 -9999 -9999 -9999 -9999 -9999 -9999 -9999 -9999 -9999 -9999 -9999 -9999 -9999 -9999 -9999 -9999 -9999 -9999 -9999 -9999 -9999 -9999 -9999 -9999 -9999 -9999 -9999 -9999 -9999 -9999 -9999 -9999 -9999 -9999 -9999 -9999 -9999 -9999 -9999 -9999 -9999 -9999 -9999 -9999 -9999 -9999 -9999 -9999 -9999 -9999 -9999 -9999 -9999 -9999 -9999 -9999 -9999 -9999 -9999 -9999 -9999 -9999 -9999 -9999 -9999 -9999 -9999 -9999 -9999 -9999 -9999 -9999 -9999 -9999 -9999 -9999 -9999 -9999 -9999 -9999 -9999 -9999 -9999 -9999 -9999 -9999 -9999 -9999 -9999 -9999 -9999 -9999 -9999 -9999 -9999 -9999 -9999 -9999 -9999 -9999 -9999 -9999 -9999 -9999 -9999 -9999 -9999 -9999 -9999 -9999 -9999 -9999 -9999 -9999 -9999 -9999 -9999 -9999 -9999 -9999 -9999 -9999 -9999 -9999 -9999 -9999 -9999
-9999 -9999 -9999 -9999 -9999 -9999 -9999 -9999 -9999 -9999 -9999 -9999 -9999 -9999 -9999 -9999 -9999 -9999 -9999 -9999 -9999 -9999 -9999 -9999 -9999 -9999 -9999 -9999 -9999 -9999 -9999 -9999 -9999 -9999 -9999 -9999 -9999 -9999 -9999 -9999 -9999 -9999 -9999 -9999 -9999 -9999 -9999 -9999 -9999 -9999 -9999 -9999 -9999 -9999 -9999 -9999 -9999 -9999 -9999 -9999 -9999 -9999 -9999 -9999 -9999 -9999 -9999 -9999 -9999 -9999 -9999 -9999 -9999 -9999 -9999 -9999 -9999 -9999 -9999 -9999 -9999 -9999 -9999 -9999 -9999 -9999 -9999 -9999 -9999 -9999 -9999 -9999 -9999 -9999 -9999 -9999 -9999 -9999 -9999 -9999 -9999 -9999 -9999 -9999 -9999 -9999 -9999 -9999 -9999 -9999 -9999 -9999 -9999 -9999 -9999 -9999 -9999 -9999 -9999 -9999 -9999 414 414 414 414.5 415.75 417 419.5 419 421 422 423.75 425 426 429 429 430 431 430 431.25 432 431 432.75 435 435 437 437 436.25 438 440 440 440 439 440.25 441 441 442 444 445 446 445 446 448 448 449 450 451 450 451 451 454 455 453 455 456.5 455 456 457 457 458.25 460 460 459.25 459 458.5 460 462 463 463 463 465 467 470 473 474 475.5 477 479.5 482 482 484 486 488.75 490.5 495 494.5 493.5 496 498 497 496 501 501 502.75 500 499.75 501 502 502.25 507 508 510.5 512 511.25 513 515 516 518 520 522 522 523 524 525 526.5 532 533.25 537 538 540 540 539 538.25 540 541 543 546 547 548 551.5 553.25 554 557.5 560.25 563 566 567 567.5 570.25 574 573 574 577 578 579.75 583 586.5 588 591.25 591.5 592 594.5 597 598 600 601 602 603 605 607 609 608.5 610 611 611 612 612 610.75 609 609 608 607 607 606 608 611 612 613 615 617 619 619 619 619 618.25 618 618 619 620 620 622 622 623 624 624 624.5 625 626 628 629 630 630 630 633 634 637 638 639 640 644.5 647 651 654 656.75 659 661 662 664.25 667 672 673 674 674 681 682.75 686 690.5 694.5 697.75 703 706.5 710 713 714.75 717 722 725 729 731.25 734 736 739 -9999 -9999 -9999 -9999 -9999 -9999 -9999 -9999 -9999 -9999 -9999 -9999 -9999 -9999 -9999 -9999 -9999 -9999 -9999 -9999 -9999 -9999 -9999 -9999 -9999 -9999 -9999 -9999 -9999 -9999 -9999 -9999 -9999 -9999 -9999 -9999 -9999 -9999 -9999 -9999 -9999 -9999 -9999 -9999 -9999 -9999 -9999 -9999 -9999 -9999 -9999 -9999 -9999 -9999 -9999 -9999 -9999 -9999 -9999 -9999 -9999 -9999 -9999 -9999 -9999 -9999 -9999 -9999 -9999 -9999 -9999 -9999 -9999 -9999 -9999 -9999 -9999 -9999 -9999 -9999 -9999 -9999 -9999 -9999 -9999 -9999 -9999 -9999 -9999 -9999 -9999 -9999 -9999 -9999 -9999 -9999 -9999 -9999 -9999 -9999 -9999 -9999 -9999 -9999 -9999 -9999 -9999 -9999 -9999 -9999 -9999 -9999 -9999 -9999 -9999 -9999 -9999 -9999 -9999 -9999 -9999 -9999 -9999 -9999 -9999 -9999 -9999 -9999 -9999 -9999 -9999 -9999 -9999 -9999 -9999 -9999
-9999 -9999 -9999 -9999 -9999 -9999 -9999 -9999 -9999 -9999 -9999 -9999 -9999 -9999 -9999 -9999 -9999 -9999 -9999 -9999 -9999 -9999 -9999 -9999 -9999 -9999 -9999 -9999 -9999 -9999 -9999 -9999 -9999 -9999 -9999 -9999 -9999 -9999 -9999 -9999 -9999 -9999 -9999 -9999 -9999 -9999 -9999 -9999 -9999 -9999 -9999 -9999 -9999 -9999 -9999 -9999 -9999 -9999 -9999 -9999 -9999 -9999 -9999 -9999 -9999 -9999 -9999 -9999 -9999 -9999 -9999 -9999 -9999 -9999 -9999 -9999 -9999 -9999 -9999 -9999 -9999 -9999 -9999 -9999 -9999 -9999 -9999 -9999 -9999 -9999 -9999 -9999 -9999 -9999 -9999 -9999 -9999 -9999 -9999 -9999 -9999 -9999 -9999 -9999 -9999 -9999 -9999 -9999 -9999 -9999 -9999 -9999 -9999 -9999 -9999 -9999 -9999 -9999 -9999 -9999 -9999 415.75 415 416.25 417 417 418 420 420 421 423 425.75 426 428 430 431 431 432 431 432.75 432 431.5 434.25 436 436 437 437 437.5 438 440 441 440.25 440 441 442 443 444 445.5 446 446.5 446 446 451 449.75 450 451 451 451.5 453 453 455 456 454.5 455 458 457 456.5 458 458.5 459 460 460.75 461 461 460.5 461 463 463 464 465 466 467 471 473 475 477.25 480 483 483 484 485.25 487.5 491.75 494 497 497 497 498 499 497.75 497 501 502 504 502.75 501 502 503 504.25 507 510.25 512 513 513 514 515 516 518 520 523 523 524 525 527.25 527 532.25 535.75 538 538 540 540 537 536 539 541 544 546 548.5 550 553.75 557 557 560 562 565 566 568 571 573 575 574.5 575 576 580.5 580.5 586.5 589 590 592.25 594 595.5 598 599.5 599 602 602.5 604 604.5 607 608 609.75 610 611 612 612 612 613 611 609 608 608 606 607 607 609.25 612 613 614 616 617 618 619 618 618 618 618 618.75 620 620 621 621.25 622 623 624 624.5 625 626 626 627.5 629 629.5 630 631.5 632.5 634 636 639 639 641.5 643 645.5 650 653 656.75 658 659 659.5 662.75 666 672 673.25 673 674 679 681 683.75 688.5 694.75 698 701 704 707 710 713.75 716.75 720.75 723 727 729 -9999 -9999 -9999 -9999 -9999 -9999 -9999 -9999 -9999 -9999 -9999 -9999 -9999 -9999 -9999 -9999 -9999 -9999 -9999 -9999 -9999 -9999 -9999 -9999 -9999 -9999 -9999 -9999 -9999 -9999 -9999 -9999 -9999 -9999 -9999 -9999 -9999 -9999 -9999 -9999 -9999 -9999 -9999 -9999 -9999 -9999 -9999 -9999 -9999 -9999 -9999 -9999 -9999 -9999 -9999 -9999 -9999 -9999 -9999 -9999 -9999 -9999 -9999 -9999 -9999 -9999 -9999 -9999 -9999 -9999 -9999 -9999 -9999 -9999 -9999 -9999 -9999 -9999 -9999 -9999 -9999 -9999 -9999 -9999 -9999 -9999 -9999 -9999 -9999 -9999 -9999 -9999 -9999 -9999 -9999 -9999 -9999 -9999 -9999 -9999 -9999 -9999 -9999 -9999 -9999 -9999 -9999 -9999 -9999 -9999 -9999 -9999 -9999 -9999 -9999 -9999 -9999 -9999 -9999 -9999 -9999 -9999 -9999 -9999 -9999 -9999 -9999 -9999 -9999 -9999 -9999 -9999 -9999 -9999 -9999 -9999 -9999 -9999 -9999
-9999 -9999 -9999 -9999 -9999 -9999 -9999 -9999 -9999 -9999 -9999 -9999 -9999 -9999 -9999 -9999 -9999 -9999 -9999 -9999 -9999 -9999 -9999 -9999 -9999 -9999 -9999 -9999 -9999 -9999 -9999 -9999 -9999 -9999 -9999 -9999 -9999 -9999 -9999 -9999 -9999 -9999 -9999 -9999 -9999 -9999 -9999 -9999 -9999 -9999 -9999 -9999 -9999 -9999 -9999 -9999 -9999 -9999 -9999 -9999 -9999 -9999 -9999 -9999 -9999 -9999 -9999 -9999 -9999 -9999 -9999 -9999 -9999 -9999 -9999 -9999 -9999 -9999 -9999 -9999 -9999 -9999 -9999 -9999 -9999 -9999 -9999 -9999 -9999 -9999 -9999 -9999 -9999 -9999 -9999 -9999 -9999 -9999 -9999 -9999 -9999 -9999 -9999 -9999 -9999 -9999 -9999 -9999 -9999 -9999 -9999 -9999 -9999 -9999 -9999 -9999 -9999 -9999 -9999 -9999 -9999 -9999 418 418 418.75 419 420.25 421 422 423 424 426.25 428 429.5 430.5 432 433 433 434.5 433 433 434 436 438 437.5 438 438 439 439.25 440 442 442 442 442 443 443 444 446.25 447 447 448 449.5 452 453.5 453 452 452.75 453.5 453.25 455 457.5 457 456.75 457 458 458.25 459 459 460 460 460 461 461.5 461 463 463 464 464 464 466 467 468.5 472 474 475 479.5 482 485 486.25 488.5 491.25 493 493 494 497 497 497 498.5 499 498 497 500.75 502.75 503 503 503 505 505 506 508 511 512 514.75 515 516.25 517 517.5 519 522 523 524 525 527 531 531 533.5 533.75 537 539 536 537 538.5 541 542.5 543 546.25 547.75 551 553.5 557.75 558 561 561.5 563.25 566 568 570 574 574.5 575.5 576.25 579.75 584.75 587 588 589 592 592 594 597 600 600.5 602.25 603 603 605 605.5 607 609 609.5 611 611 612 613 613 612 612 609 606 607 606 606 607 608 611 613 615 614.75 616.25 617 617.5 617.5 618 617 617 618 619 621 622 621 622 623 624 624 625 626 626 627 627 628.25 629 630.5 631 633 634 636 638.25 639 640.25 643.25 645 648.25 651.75 654.25 654.5 656 656 660.75 666.5 671.75 673 672 675 678.75 681 683 684.5 690 696.5 698.75 701.75 705 707 711.25 715 -9999 -9999 -9999 -9999 -9999 -9999 -9999 -9999 -9999 -9999 -9999 -9999 -9999 -9999 -9999 -9999 -9999 -9999 -9999 -9999 -9999 -9999 -9999 -9999 -9999 -9999 -9999 -9999 -9999 -9999 -9999 -9999 -9999 -9999 -9999 -9999 -9999 -9999 -9999 -9999 -9999 -9999 -9999 -9999 -9999 -9999 -9999 -9999 -9999 -9999 -9999 -9999 -9999 -9999 -9999 -9999 -9999 -9999 -9999 -9999 -9999 -9999 -9999 -9999 -9999 -9999 -9999 -9999 -9999 -9999 -9999 -9999 -9999 -9999 -9999 -9999 -9999 -9999 -9999 -9999 -9999 -9999 -9999 -9999 -9999 -9999 -9999 -9999 -9999 -9999 -9999 -9999 -9999 -9999 -9999 -9999 -9999 -9999 -9999 -9999 -9999 -9999 -9999 -9999 -9999 -9999 -9999 -9999 -9999 -9999 -9999 -9999 -9999 -9999 -9999 -9999 -9999 -9999 -9999 -9999 -9999 -9999 -9999 -9999 -9999 -9999 -9999 -9999 -9999 -9999 -9999 -9999 -9999 -9999 -9999 -9999 -9999 -9999 -9999 -9999 -9999 -9999 -9999
-9999 -9999 -9999 -9999 -9999 -9999 -9999 -9999 -9999 -9999 -9999 -9999 -9999 -9999 -9999 -9999 -9999 -9999 -9999 -9999 -9999 -9999 -9999 -9999 -9999 -9999 -9999 -9999 -9999 -9999 -9999 -9999 -9999 -9999 -9999 -9999 -9999 -9999 -9999 -9999 -9999 -9999 -9999 -9999 -9999 -9999 -9999 -9999 -9999 -9999 -9999 -9999 -9999 -9999 -9999 -9999 -9999 -9999 -9999 -9999 -9999 -9999 -9999 -9999 -9999 -9999 -9999 -9999 -9999 -9999 -9999 -9999 -9999 -9999 -9999 -9999 -9999 -9999 -9999 -9999 -9999 -9999 -9999 -9999 -9999 -9999 -9999 -9999 -9999 -9999 -9999 -9999 -9999 -9999 -9999 -9999 -9999 -9999 -9999 -9999 -9999 -9999 -9999 -9999 -9999 -9999 -9999 -9999 -9999 -9999 -9999 -9999 -9999 -9999 -9999 -9999 -9999 -9999 -9999 -9999 -9999 -9999 419 419.5 419.5 420 421 422 422.25 424 426 427 428 430 432 433 435 434.5 435 434 435 435 438 439 439 439.5 439.5 440 440 441 443 444 443 442 444 444 445.75 446 448 449 449.25 451.75 454 454 454 453 453 456 455.5 457 458 459 458 458 459 459 460 459.75 461 462 462 462 463 462 463 464 465 465 466 467.25 470 471 473.75 474.75 475.5 479 481 486 489.5 492.25 494 495 494.75 494 496.5 497 497 497 498.75 498 498 502 503 504 504 503.5 504 506 507 508.75 510 512.5 515 516 517 518 518.5 520 521 522.75 524 525.5 529.5 530.5 531 532 533 535.5 536 537 541 541 542 545 545.5 548 550.5 553.75 555.5 559 560 562 564 565 567 568.75 571 573 574 575 579 585 588 588 591 592.5 593 594 595.5 597.5 601 602 604 605 606 606 608 609 609.75 611 611 612 613.75 614 613 611 609.25 607.5 605 606 606 607.5 608 608 610 612 615 616 617 617 615 616 616 617 617 618 620 621 623 622 622.5 623 624 624 625 626 627 627 628 628 629 632 632 634 634.5 637 637.5 639 639.25 641.75 644.5 648.75 649.75 652 653 655 656 661.75 666 670 669.75 673 674 678 680 682 684 689 693.5 697.75 700.25 703.75 704.25 -9999 -9999 -9999 -9999 -9999 -9999 -9999 -9999 -9999 -9999 -9999 -9999 -9999 -9999 -9999 -9999 -9999 -9999 -9999 -9999 -9999 -9999 -9999 -9999 -9999 -9999 -9999 -9999 -9999 -9999 -9999 -9999 -9999 -9999 -9999 -9999 -9999 -9999 -9999 -9999 -9999 -9999 -9999 -9999 -9999 -9999 -9999 -9999 -9999 -9999 -9999 -9999 -9999 -9999 -9999 -9999 -9999 -9999 -9999 -9999 -9999 -9999 -9999 -9999 -9999 -9999 -9999 -9999 -9999 -9999 -9999 -9999 -9999 -9999 -9999 -9999 -9999 -9999 -9999 -9999 -9999 -9999 -9999 -9999 -9999 -9999 -9999 -9999 -9999 -9999 -9999 -9999 -9999 -9999 -9999 -9999 -9999 -9999 -9999 -9999 -9999 -9999 -9999 -9999 -9999 -9999 -9999 -9999 -9999 -9999 -9999 -9999 -9999 -9999 -9999 -9999 -9999 -9999 -9999 -9999 -9999 -9999 -9999 -9999 -9999 -9999 -9999 -9999 -9999 -9999 -9999 -9999 -9999 -9999 -9999 -9999 -9999 -9999 -9999 -9999 -9999 -9999 -9999 -9999 -9999
-9999 -9999 -9999 -9999 -9999 -9999 -9999 -9999 -9999 -9999 -9999 -9999 -9999 -9999 -9999 -9999 -9999 -9999 -9999 -9999 -9999 -9999 -9999 -9999 -9999 -9999 -9999 -9999 -9999 -9999 -9999 -9999 -9999 -9999 -9999 -9999 -9999 -9999 -9999 -9999 -9999 -9999 -9999 -9999 -9999 -9999 -9999 -9999 -9999 -9999 -9999 -9999 -9999 -9999 -9999 -9999 -9999 -9999 -9999 -9999 -9999 -9999 -9999 -9999 -9999 -9999 -9999 -9999 -9999 -9999 -9999 -9999 -9999 -9999 -9999 -9999 -9999 -9999 -9999 -9999 -9999 -9999 -9999 -9999 -9999 -9999 -9999 -9999 -9999 -9999 -9999 -9999 -9999 -9999 -9999 -9999 -9999 -9999 -9999 -9999 -9999 -9999 -9999 -9999 -9999 -9999 -9999 -9999 -9999 -9999 -9999 -9999 -9999 -9999 -9999 -9999 -9999 -9999 -9999 -9999 -9999 -9999 421.75 422 423.25 423 423.5 425 425 426 429 430 430 432 433.75 434 435 435 435 435 435 437 438 439.25 441 441 441 442 442 442 443 445 445 445 444 446 447 447 448 449 451 453 455 455 454 453 454.25 457 458 458 458 459 460 459.5 459 459 460 461.5 460.5 462 464.5 464 463.5 464.5 464.5 465 466 466 467.75 471 472 473.5 475.75 477.25 480 482 483.25 487.75 491 494 495 495 495 496 497 498 497 497 497.75 498 498.75 502 503 505 506 506 506 507.25 509 510.5 511 513 514 516 518 519 521 522.25 523 523 523 525 527.75 529 530.5 534.25 536 538 539 542 542 543 543 546 548 551 553.25 557 557.5 559.25 561.75 565 566 568 571 572 572 575.5 578 579 584.25 587.5 590.25 590 593.5 597 597.5 596.5 600.75 601.5 602.5 604 605 606 607 607 609 611 611 612 613.5 614 615 615 612.5 608 606 606 607 607 608.25 609 610 610 610 611 613 614 614 615 617.5 617 618 619 619 618 620 620.5 623 623 623 624 625 625.5 626.5 628.5 629 629 629 629.5 630 633.25 634 635 636 636 637.5 640 639 641 644 647 649 651 652 653.25 655 659 661.25 663.5 666.5 672 674 677 678 681 682 688 691 696.25 -9999 -9999 -9999 -9999 -9999 -9999 -9999 -9999 -9999 -9999 -9999 -9999 -9999 -9999 -9999 -9999 -9999 -9999 -9999 -9999 -9999 -9999 -9999 -9999 -9999 -9999 -9999 -9999 -9999 -9999 -9999 -9999 -9999 -9999 -9999 -9999 -9999 -9999 -9999 -9999 -9999 -9999 -9999 -9999 -9999 -9999 -9999 -9999 -9999 -9999 -9999 -9999 -9999 -9999 -9999 -9999 -9999 -9999 -9999 -9999 -9999 -9999 -9999 -9999 -9999 -9999 -9999 -9999 -9999 -9999 -9999 -9999 -9999 -9999 -9999 -9999 -9999 -9999 -9999 -9999 -9999 -9999 -9999 -9999 -9999 -9999 -9999 -9999 -9999 -9999 -9999 -9999 -9999 -9999 -9999 -9999 -9999 -9999 -9999 -9999 -9999 -9999 -9999 -9999 -9999 -9999 -9999 -9999 -9999 -9999 -9999 -9999 -9999 -9999 -9999 -9999 -9999 -9999 -9999 -9999 -9999 -9999 -9999 -9999 -9999 -9999 -9999 -9999 -9999 -9999 -9999 -9999 -9999 -9999 -9999 -9999 -9999 -9999 -9999 -9999 -9999 -9999 -9999 -9999 -9999 -9999 -9999 -9999
-9999 -9999 -9999 -9999 -9999 -9999 -9999 -9999 -9999 -9999 -9999 -9999 -9999 -9999 -9999 -9999 -9999 -9999 -9999 -9999 -9999 -9999 -9999 -9999 -9999 -9999 -9999 -9999 -9999 -9999 -9999 -9999 -9999 -9999 -9999 -9999 -9999 -9999 -9999 -9999 -9999 -9999 -9999 -9999 -9999 -9999 -9999 -9999 -9999 -9999 -9999 -9999 -9999 -9999 -9999 -9999 -9999 -9999 -9999 -9999 -9999 -9999 -9999 -9999 -9999 -9999 -9999 -9999 -9999 -9999 -9999 -9999 -9999 -9999 -9999 -9999 -9999 -9999 -9999 -9999 -9999 -9999 -9999 -9999 -9999 -9999 -9999 -9999 -9999 -9999 -9999 -9999 -9999 -9999 -9999 -9999 -9999 -9999 -9999 -9999 -9999 -9999 -9999 -9999 -9999 -9999 -9999 -9999 -9999 -9999 -9999 -9999 -9999 -9999 -9999 -9999 -9999 -9999 -9999 -9999 -9999 -9999 -9999 425 425 424 426 426 427 427.5 429 430 431.5 432 434 435 436 437 436.5 436 436 437 439 440 441.5 441 441.5 443 443 442 444 445 445.75 445 445.5 446.5 449 448.5 449 450 451 453 454 455 454 454 455 457 459 458 458 458.25 459 460 460 461 462.25 462.5 462 462 465 466 465 466 466 466 466 467 468.75 471 472.75 473.75 476 479.75 482 484.25 487 489.25 491 493 494 495 496 497.5 498 498 498 497 498 498 499 502 503 504.75 505 508 507 508.75 510 512 513 514 515 516 517.5 520 522 523 524 525 525 526 528 531.5 533 536 537 538 540 542.25 544 543.25 545 547.25 549 551 553.75 558 560 563.25 565.5 567 567.25 567.75 571.5 571 574 577.75 579 580.5 586.25 589.25 592.25 594 596.5 599 599 599.25 602.5 604.5 605.5 606 607.5 608 608 608 609.25 612 613 613 613.5 613 612.5 611.5 609 607.25 604 606 607 608 608 609 610 610 611 613 612 613.5 615.75 617.25 617.5 619 619 619 620 619 619.75 621 623 624 624 624 626 627 628.75 630 631 631 630 630 631 634 634 635 636 637 638 640 640 641 644 648.5 650 652 652 653 654 656.75 659.25 663.5 667 671.25 672.5 675 677 680 683 688 -9999 -9999 -9999 -9999 -9999 -9999 -9999 -9999 -9999 -9999 -9999 -9999 -9999 -9999 -9999 -9999 -9999 -9999 -9999 -9999 -9999 -9999 -9999 -9999 -9999 -9999 -9999 -9999 -9999 -9999 -9999 -9999 -9999 -9999 -9999 -9999 -9999 -9999 -9999 -9999 -9999 -9999 -9999 -9999 -9999 -9999 -9999 -9999 -9999 -9999 -9999 -9999 -9999 -9999 -9999 -9999 -9999 -9999 -9999 -9999 -9999 -9999 -9999 -9999 -9999 -9999 -9999 -9999 -9999 -9999 -9999 -9999 -9999 -9999 -9999 -9999 -9999 -9999 -9999 -9999 -9999 -9999 -9999 -9999 -9999 -9999 -9999 -9999 -9999 -9999 -9999 -9999 -9999 -9999 -9999 -9999 -9999 -9999 -9999 -9999 -9999 -9999 -9999 -9999 -9999 -9999 -9999 -9999 -9999 -9999 -9999 -9999 -9999 -9999 -9999 -9999 -9999 -9999 -9999 -9999 -9999 -9999 -9999 -9999 -9999 -9999 -9999 -9999 -9999 -9999 -9999 -9999 -9999 -9999 -9999 -9999 -9999 -9999 -9999 -9999 -9999 -9999 -9999 -9999 -9999 -9999 -9999 -9999 -9999 -9999
